x y z 
-0.4681084495728039 1.6309712839027137 0.9040780861791997
-0.42483920876809905 1.6228700709758441 0.8996436047808624
-0.3730120846322144 1.5747487762688324 0.8730367824696265
-0.3451960892227503 1.6266839230995738 0.9018608785194251
-0.30941671590014797 1.6476003465965665 0.9135013839302121
-0.26889027553603256 1.6435055064935709 0.9112841101916493
-0.22886460493508454 1.6394119565313645 0.9090669025318747
-0.1887137975647753 1.6303179858566477 0.9040780861791997
-0.14929721797258438 1.6222257814631347 0.8996436047808624
-0.11240477300347175 1.6431396023064027 0.9112841101916493
-0.07407054454295377 1.651050004898715 0.9157185915899867
-0.03546681869422157 1.6599598267992834 0.9207074079426618
0.0034346305149137047 1.6338687710329276 0.9062953599177624
0.0423544859846171 1.6557777815124735 0.918490134204099
0.08165992431882986 1.6636859131611286 0.9229246156024363
0.1205539487824545 1.659595009284683 0.9207074079426618
0.15852101008528055 1.6465061853451979 0.9135013839302121
-0.7803135160520325 0.9676995113858818 0.4838857877695402
-0.7703840537862784 1.0026764156030545 0.5013997630382149
-0.7569962892507884 1.034645144614714 0.5174125012267006
-0.7495459066150139 1.076627893794167 0.5384292834795501
-0.7390701010183502 1.1166034698126683 0.5584452211282072
-0.7327226498938552 1.165588786554011 0.5829647805391318
-0.7338324187511557 1.230591497188534 0.6154906792181994
-0.7262513844711486 1.285573987852783 0.6430126531373025
-0.7248680405625899 1.3565709272993178 0.6785409663245485
-0.7197210572319218 1.4265591361145271 0.7135689168618979
-0.7033655118422867 1.4795210107404206 0.7400900461768084
-0.6674849153761188 1.4934370897230511 0.7470956004929585
-0.6258370113008261 1.49333970598947 0.7470956004929585
-0.6065405854149069 1.5482948029924946 0.7746175744120615
-0.5832148245681282 1.5982403502426652 0.7996374964728828
-0.5522080044344464 1.6311679307406945 0.8161506569634648
-0.5179691883313069 1.6570879653651858 0.8291610402959717
-0.4755644466295546 1.656988811946541 0.8291610402959717
-0.4279774989858443 1.634877525850625 0.8181522865196502
-0.38839021725772765 1.6397849692933442 0.8206542787257324
-0.35155393781624156 1.6566988428203708 0.8291610402959717
-0.30397871012227967 1.6185875079640453 0.8101458875993076
-0.2654605028840647 1.6224974017196854 0.8121474575032934
-0.22816803190490006 1.6344103188604722 0.8181522865196502
-0.18732820722445678 1.618314748463933 0.8101458875993076
-0.1485632345840919 1.6142241463445302 0.8081443176953217
-0.11213223064660924 1.639139005594447 0.8206542787257324
-0.07371372966532214 1.6430491324894916 0.8226558486297182
-0.034748777223989814 1.6259580157821731 0.8141490870594789
0.003387865436741885 1.6138688447808542 0.8081443176953217
0.04158062607978303 1.6257795375984379 0.8141490870594789
0.08190631549181737 1.6686853459341568 0.8356662319622251
0.12026269193733326 1.6555956116736608 0.8291610402959717
0.15726747595984175 1.6335090694544339 0.8181522865196502
-0.776280815434129 0.9626900729728536 0.43166744173552307
-0.7703840537862784 1.0026764156030545 0.449616200196693
-0.7569962892507884 1.034645144614714 0.463975174870765
-0.7495459066150139 1.076627893794167 0.4828213859651394
-0.7430415354877042 1.1226128144332583 0.5034624488344829
-0.7327226498938552 1.165588786554011 0.5227573461268795
-0.7254843121836538 1.2165719998868187 0.5456420004606543
-0.7217323843873331 1.2775633831618463 0.5730138377232914
-0.7328821876417899 1.3715896931799763 0.6151933893494628
-0.7262787332548143 1.4395743974556847 0.6457062439640158
-0.7133469435445836 1.5005444350131776 0.6730781347180929
-0.7108260813373892 1.5905387007804987 0.7134627810778552
-0.6907697551476111 1.6484920501192044 0.7394885062549856
-0.6507881383494689 1.661398609585369 0.7453218547607948
-0.6061923657433211 1.6612943329612568 0.7453218547607948
-0.5654029659561448 1.6701989249727356 0.7493602980001951
-0.52327929817497 1.674100388215082 0.7511551497751642
-0.4755644466295546 1.656988811946541 0.7435269494943859
-0.4337309790918867 1.6568909943168688 0.7435269494943859
-0.3954878039141327 1.6698016187159364 0.7493602980001951
-0.3532493691606082 1.664702845266321 0.7471167065357639
-0.3101667748711291 1.6516020598677288 0.7412833580299546
-0.27166676743026097 1.6605121242891643 0.7453218547607948
-0.23179021830490382 1.6604188824484911 0.7453218547607948
-0.1921777940625374 1.6603262582011353 0.7453218547607948
-0.1543434248612166 1.6772377979322743 0.7529500550415731
-0.11533463989099277 1.686146553488661 0.7569884982809734
-0.07545320019992183 1.6820533407761868 0.7551936465060043
-0.03601590656462704 1.685961085466542 0.7569884982809734
0.0035562196624120664 1.6858685554465256 0.7569884982809734
0.043257322540256854 1.690775732745515 0.7592320897454046
0.08432095251175242 1.7176798586273605 0.7713475264464853
0.1247770992568529 1.7175852615352902 0.7713475264464853
0.16536722696625675 1.7174903511605513 0.7713475264464853
0.20962104776031731 1.7463868780473024 0.7843603355436105
0.24655658204305383 1.7133004304876944 0.7695526211800763
0.28688954344158935 1.7082061125350285 0.7673090297156451
0.33921781021685865 1.765083952140369 0.7928860152033133
0.3801865871545676 1.7549881385837756 0.7883988322744507
0.4259232505068334 1.7648812120581316 0.7928860152033133
0.46599202326802464 1.749787494047306 0.7861552408100194
0.5102239099109468 1.7496840682841068 0.7861552408100194
0.5645709137726909 1.7795570441229767 0.799616789596607
0.6091378185126416 1.7744528260992385 0.7973731981321757
0.6689624156875337 1.8093130027871818 0.8130783383831944
0.7239523218569127 1.8251844981147487 0.8202578524659504
0.7671697149919183 1.809083368338978 0.8130783383831944
0.8204252418056412 1.8149589013002543 0.8157706695370879
0.879418907475529 1.8298209853230978 0.8225014439303816
0.8895486542976331 1.7447970288013535 0.7843603355436105
0.9260726917106865 1.7157116220754471 0.7713475264464853
0.9951856568891084 1.7445500217563392 0.7843603355436105
1.1047999588863073 1.8352940436196334 0.825193775084275
1.1471322557420986 1.8081949161668753 0.8130783383831944
1.5084760631464358 1.855350227975511 0.8346168806314623
1.5369579794802064 1.8022833923832828 0.8108347469187632
1.6398792672701512 1.834042887721891 0.825193775084275
-0.7657957745981466 0.9496655092120938 0.37861263328937916
-0.7511725601504115 0.9776313899811402 0.3897834994352109
-0.7489472424384385 1.0236262565656917 0.40813561629206985
-0.7537233105773604 1.0826376008158893 0.43167423559215884
-0.7496605403334532 1.1326283092048313 0.45162224142665525
-0.7327226498938552 1.165588786554011 0.46478790339996817
-0.7230990881043579 1.2125663439607368 0.483538974666355
-0.7335947511900722 1.2985912055546713 0.5178495294825899
-0.7360878719497816 1.377597247275656 0.5493673320926038
-0.7313231965658558 1.4495863297453995 0.5780924300560808
-0.7257048445474505 1.5265733057857156 0.608812276287355
-0.7179751539173974 1.6065554933537707 0.6407290570867389
-0.7226077166819614 1.7245666785997529 0.6878062956869169
-0.6680172335228035 1.705438926371632 0.6802260430066778
-0.627346253202023 1.719343923388803 0.6858114998594357
-0.583672903371037 1.7242418125315793 0.6878062956869169
-0.5301512444580717 1.6961165911584948 0.6766354295410851
-0.4921970317815664 1.7150278303823134 0.6842156346616403
-0.4488992674993761 1.7149265888424297 0.6842156346616403
-0.39643413752033246 1.6738037909287238 0.6678582898524205
-0.36469351178719916 1.7187297723249693 0.6858114998594357
-0.3219803489636986 1.7146298190907818 0.6842156346616403
-0.2731366588699418 1.6695155296178923 0.6662624722143091
-0.2405670418067505 1.723439540951423 0.6878062956869169
-0.2038398747698931 1.7613537546769018 0.7029667534877111
-0.15938962081250327 1.7322496951662243 0.6913969091525095
-0.11628855438501111 1.7001488804377216 0.6786302253685664
-0.0775048817585947 1.7280582677126846 0.6898010915143981
-0.03749422664626601 1.7559647859804748 0.7009719576602298
0.0036754707232469486 1.7368684150728981 0.6933917049799907
0.04457288560849314 1.7417727950803457 0.695386500807472
0.0852572366193334 1.7366776554865158 0.6933917049799907
0.12412177786531774 1.7085867063024798 0.682220838834159
0.1658493545918233 1.7224892327198653 0.6878062956869169
0.21310519172230644 1.7753788543513938 0.7089511409701548
0.2554840448340825 1.7752797614670688 0.7089511409701548
0.29730547540394303 1.7701819630827116 0.7069563451426736
0.3411397450762705 1.7750794759526525 0.7089511409701548
0.3899338028965777 1.79996542713691 0.7189251201075609
0.4319548187492671 1.7898671531694883 0.7149355284525984
0.4635962166998709 1.7407930085257692 0.695386500807472
0.5218817138890889 1.7896568804800814 0.7149355284525984
0.5693264589995742 1.7945459511105872 0.7169303242800797
0.6211431067036957 1.8094248168856222 0.7229147117625234
0.663421437355696 1.794325932348371 0.7169303242800797
0.7176123465300405 1.809199246476772 0.7229147117625234
0.7523438272899887 1.7741179728547447 0.7089511409701548
0.8177162670020832 1.808965177230357 0.7229147117625234
0.8746190904745201 1.8198321907547939 0.7273032816068558
0.9277324769030263 1.8197079977134298 0.7273032816068558
0.990747113530612 1.8355607291144473 0.7336866472786693
1.0498625360876088 1.840422510637172 0.7356814431061506
1.107804818211503 1.8402870263699391 0.7356814431061506
1.188296112252835 1.8730988991767792 0.7488471050794635
1.2507778516953687 1.8729528004665883 0.7488471050794635
1.3110319456638129 1.8668118522121637 0.7464533310626125
1.373744410077656 1.8616652051061418 0.7444585352351312
1.4592908615869715 1.88346530957285 0.7532356749237958
1.5311901481665064 1.8832971901650575 0.7532356749237958
1.5684366224251305 1.8392099482817015 0.7356814431061506
1.6068776362583168 1.797119892969404 0.7189251201075609
-0.7617630739802431 0.9446560707990656 0.3312007956616732
-0.7534779064080482 0.9806367500631956 0.34383131737736383
-0.7460203639042571 1.019619453318909 0.3575144121949601
-0.7411909326930641 1.064608240943346 0.37330256956762015
-0.7377463158301529 1.1146003947371768 0.39084500847272724
-0.7289509453338386 1.1595799089543843 0.4066331658453873
-0.7284657889697636 1.2215789802625496 0.42838577168499564
-0.7279460179198559 1.2885779795327679 0.4518926172326773
-0.7392934925669942 1.3836046820127945 0.4852231716860707
-0.7348542667629583 1.4565945749329978 0.5108351216131899
-0.7219024483378597 1.518564495912383 0.5325877274527983
-0.7219965272178895 1.615564983926547 0.56662001124892
-0.7188374041654205 1.7155577750730007 0.6017048054103867
-0.6629268041873899 1.6924269766288116 0.5936352943883746
-0.6360995649540317 1.7433643859671701 0.6115285561404722
-0.593146199771464 1.7522640372690625 0.6146862127096284
-0.5317130436612802 1.701120251955328 0.5967929509575309
-0.4893293458652027 1.7050211071792338 0.5981963259942401
-0.4462840464351846 1.704920455968454 0.5981963259942401
-0.39950976404543515 1.686811029533626 0.5918810546803013
-0.3697797805564544 1.7427416603941315 0.6115285561404722
-0.3317312497091763 1.7666528071871967 0.6199489318338485
-0.2804861550074148 1.7145327947718125 0.6017048054103867
-0.2366662295161952 1.6954303461447366 0.5950387112494575
-0.20268521385885366 1.7513510369760061 0.6146862127096284
-0.16030711098546446 1.7422518582996696 0.6115285561404722
-0.11819637525054803 1.7281534151072346 0.6066167016876163
-0.0775048817585947 1.7280582677126846 0.6066167016876163
-0.037916603093145096 1.7759658092085977 0.6234574112499951
0.0037198977147552895 1.755868416537746 0.6164404524177017
0.04444390895768746 1.7367730877613399 0.6097743164323989
0.08668630894731837 1.7656744370876067 0.6199489318338485
0.12579647651481854 1.7315828552005694 0.6080200767243255
0.16903139921952812 1.755481874847885 0.6164404524177017
0.21610875669533453 1.800371875729338 0.6322286097903618
0.2598037782497049 1.8052697141979357 0.6339828494984351
0.29394550251983365 1.7501897839803071 0.6146862127096284
0.3449836147950942 1.7950705235772195 0.6304743700822885
0.39339948993337925 1.8159573996154976 0.637842193585946
0.43074850510078033 1.784869964947217 0.6269658906661417
0.46998500248156955 1.7647781841144525 0.6199489318338485
0.5218817138890889 1.7896568804800814 0.6287201303742151
0.5826420158698188 1.8365149859728918 0.6452100170896035
0.619428065533545 1.804428818201853 0.6339828494984351
0.6671154229102544 1.8043173126409116 0.6339828494984351
0.7346510361255603 1.8521596251412296 0.6508236008851876
0.7760652678117643 1.8300626532661342 0.643104912710166
0.8177162670020832 1.808965177230357 0.6357370892065085
0.8770189989750247 1.8248265880389458 0.6413506730020926
0.94096953864311 1.8456771399532272 0.6487184965057501
0.9735005667795582 1.8036009037390413 0.6339828494984351
1.0350542132235214 1.814457042418387 0.637842193585946
1.1047999588863073 1.8352940436196334 0.6452100170896035
1.1952623207763438 1.8840826776168607 0.6624015913233464
1.2467783579561182 1.8669620939687632 0.6564371428563981
1.3187420859017067 1.8777938911445922 0.6602964869439089
1.4024642524553381 1.9005981915227435 0.668365997965921
1.4546520181943923 1.8774760980423635 0.6602964869439089
1.558771474952174 1.9172327106201175 0.6743304046084956
1.6152290791681079 1.8941006331364147 0.6662608935864835
1.6345276226933991 1.828055342907705 0.643104912710166
-0.7827331075786245 0.9707051386033689 0.29501677652186575
-0.7557832984693896 0.9836421698571598 0.2989706129732711
-0.7401665196069936 1.0116057274117636 0.3074865600401982
-0.7335323172627812 1.0535903850350106 0.32026049876880497
-0.7304653789379244 1.1035833027308002 0.3354675341538775
-0.7232934634303266 1.1505667119397809 0.3497621764209915
-0.7272732124721224 1.219576211987423 0.37074790700625104
-0.7206026512009323 1.2755607618308797 0.3877798011401052
-0.7173881317408688 1.3425533408622454 0.40815722130481596
-0.7313231965658558 1.4495863297453995 0.4407003422904493
-0.7185752666631952 1.5115566082600618 0.4595570589166528
-0.7161879124047122 1.6025513548775339 0.4872339140764901
-0.7071076262349106 1.6875302740893046 0.5130858742311134
-0.6754571061449979 1.724456428093835 0.524339109421213
-0.6485001406607249 1.7773935138163492 0.5404585741806763
-0.598221175664658 1.7672759305958652 0.5374171671036618
-0.5388973274432856 1.7241371154800973 0.524339109421213
-0.501660402142669 1.7480500408103867 0.5316384719034748
-0.4499453746305892 1.7189291135615277 0.5228184058827057
-0.39738049932983455 1.6778060824170733 0.5103486223643733
-0.3687201391242058 1.7377391737739987 0.5285970648264603
-0.3326688345997963 1.7716550084070917 0.538937870642169
-0.2842425680382523 1.7375416430348445 0.5285970648264603
-0.23861662735766737 1.7094348839238556 0.5200811177595333
-0.20049134986909245 1.732345801799224 0.5270763612879531
-0.16076585607194507 1.7472529398663923 0.5316384719034748
-0.11915028162206662 1.742155622827687 0.5301177683649676
-0.07942275707353758 1.7710628525929675 0.538937870642169
-0.03802219720486486 1.7809660650156285 0.5419792777191835
0.0038017366015559743 1.7908682874788746 0.545020684796198
0.04457288560849314 1.7417727950803457 0.5301177683649676
0.08816465598524346 1.7956710337257757 0.5465413883347053
0.12754399154559554 1.7555788832987447 0.5343757600266472
0.16903139921952812 1.755481874847885 0.5343757600266472
0.21803104400692355 1.8163674570816732 0.5529283576990087
0.2569239559726233 1.785276412377358 0.5434999812576908
0.29243350270577356 1.741193231886553 0.5301177683649676
0.332683217948096 1.731099099684979 0.5270763612879531
0.3920998508392466 1.8099603801487176 0.551103498950227
0.43074850510078033 1.784869964947217 0.5434999812576908
0.4673230163392062 1.7547843907363547 0.5343757600266472
0.5204244883918211 1.7846602789555848 0.5434999812576908
0.5791546009192855 1.8255230732001466 0.5559697647760232
0.6211431067036957 1.8094248168856222 0.551103498950227
0.6615744445784169 1.7893302422021007 0.545020684796198
0.7259335582420102 1.8301798743642208 0.5574904683145304
0.7739472838543459 1.8250675967683867 0.5559697647760232
0.8204252418056412 1.8149589013002543 0.5529283576990087
0.8645394518850691 1.7988556745310256 0.5480620918732125
0.938423954515518 1.8406830832969356 0.5608360306018193
0.9794290752562659 1.8145871085942604 0.5529283576990087
1.0435974607461034 1.829437092763642 0.5574904683145304
1.1108096775366987 1.8452800091202448 0.5623567341403266
1.2389593028443577 1.9529806969505628 0.5952039740798021
1.3167690216195307 1.9717987435378292 0.6009826330235567
1.3509843841887557 1.9237186297529882 0.5863838718026005
1.4275020705117571 1.934539778578577 0.5897294340898894
1.5126371919420603 1.952340766197007 0.5952039740798021
1.5871641537557502 1.9521665025946715 0.5952039740798021
1.600765976458827 1.8771344452485426 0.572393384745761
1.6443389356418174 1.839032468746714 0.5608360306018193
-0.9504936648071756 1.179098039341094 0.3046515382950227
-0.8941059060757756 1.163966163256835 0.3007722782292386
-0.8557797045984709 1.1698764856905386 0.3023239637577811
-0.8059415655950329 1.1577599535187686 0.2992205618710775
-0.7688556228242202 1.1616731962847466 0.30025501889010586
-0.7371229219228658 1.1725990641636845 0.30309982193686164
-0.714750981536856 1.1985468466590217 0.30982388504940156
-0.7093051846604996 1.255534309787073 0.32456509796307603
-0.7237995003568524 1.354568449053605 0.3501682328950224
-0.7166943912721027 1.420552000610743 0.36723698951632
-0.7085938916217467 1.4905333033294081 0.3853402339862645
-0.712613376114708 1.594542958590898 0.4122364556068056
-0.7033373636576067 1.678521489888939 0.43396033047296784
-0.6594026859361363 1.6834187679785004 0.4352534171615625
-0.6360995649540317 1.7433643859671701 0.45077045742469907
-0.6049878101889167 1.7872917883649355 0.46214963878210363
-0.5507670088349166 1.7621649613953663 0.45568420533913007
-0.5002265591844872 1.7430466792088468 0.45077045742469907
-0.4525605956947807 1.7289352464355032 0.4471498270284813
-0.39950976404543515 1.686811029533626 0.4362878741805909
-0.36172650061859646 1.704722738227384 0.4409429924254556
-0.33548158927165633 1.7866616120667764 0.46214963878210363
-0.28113945523468853 1.7185344010052452 0.44456365365129186
-0.23931320038785184 1.714436521594748 0.443529165802645
-0.2000294910105342 1.7283447624155859 0.4471498270284813
-0.16296783904945933 1.7712582029277752 0.4582703787163195
-0.11976351410875694 1.7511571442724991 0.45309803196194065
-0.08031479160914401 1.7910649740050015 0.46344272547069837
-0.0382333854283044 1.79096657662969 0.46344272547069837
0.003862531314676081 1.8168682392901554 0.47016678858323824
0.04493402207577659 1.7557720470950176 0.4543911186505354
0.0886574383312185 1.805669899271832 0.46732198553648246
0.12754399154559554 1.7555788832987447 0.4543911186505354
0.16999565447066112 1.7654796379665132 0.4569772920277248
0.26138768736813767 1.816266077867045 0.47016678858323824
0.2956254889618884 1.7601858735315095 0.45568420533913007
0.3421007125059764 1.7800772378587941 0.46085655209350895
0.39101682686791217 1.8049629036428139 0.46732198553648246
0.4355737596947274 1.8048587178363025 0.46732198553648246
0.4673230163392062 1.7547843907363547 0.4543911186505354
0.5189672628945533 1.7796636774310879 0.46085655209350895
0.5740820042264576 1.8095348580981978 0.4686150722250772
0.619428065533545 1.804428818201853 0.46732198553648246
0.6652684301329752 1.7993216224946411 0.4660288988478878
0.7322735335688827 1.8461651260021974 0.47818393838437284
0.782842836674192 1.8460468816955429 0.47818393838437284
0.8204252418056412 1.8149589013002543 0.47016678858323824
0.8645394518850691 1.7988556745310256 0.4660288988478878
0.9440242638728256 1.8516700555678582 0.47973565474253393
0.9821238401550851 1.8195808164267444 0.471459875271833
1.0407497115719093 1.8244437426485571 0.47275296196042765
1.1047999588863073 1.8352940436196334 0.4755977650071834
1.1952623207763438 1.8840826776168607 0.48827003305318273
1.2727749083367563 1.9059014481570018 0.49395960831707575
1.342573375283125 1.9117382993812186 0.4955113246752368
1.4407573756255807 1.9525088400782127 0.5061146478535609
1.480938643810853 1.9114147650582711 0.4955113246752368
1.5822968152855026 1.9461778253456636 0.5045629314953998
1.629692283297404 1.9110669399967557 0.4955113246752368
1.6639614552117725 1.8609866014637366 0.4825804269596712
-1.1690662690507432 1.4506098879698608 0.31019786817873346
-1.1161903895874246 1.4534861602546074 0.31084007870813934
-1.0657859871363582 1.4573683801749642 0.31169640194732917
-1.0092445477186716 1.4502361828272794 0.31019786817873346
-0.9680878580526886 1.463139875454971 0.3129808485261301
-0.9156490471339375 1.4570173205936838 0.31169640194732917
-0.8584582621449655 1.439883467895413 0.3080570728407534
-0.8228448176653446 1.4568003199412276 0.31169640194732917
-0.785241358321499 1.46971244016386 0.3144794078147151
-0.749987476293995 1.4866300137514683 0.31811871140130166
-0.7290320262221152 1.533581193438037 0.32818034996184986
-0.709038839824704 1.586534562304262 0.339526435101199
-0.6978913899820944 1.66550870879011 0.35643853197532
-0.6664509691175614 1.7014353045978856 0.36414531352808266
-0.6466765304225317 1.772389240836583 0.3793447894438131
-0.5965295170335934 1.7622719661535977 0.3772040196258223
-0.5360860665357721 1.7151304544677874 0.3671423810652741
-0.4893293458652027 1.7050211071792338 0.36500161124728325
-0.4549142821821954 1.737940718309076 0.3720661567506508
-0.39643413752033246 1.6738037909287238 0.35836521460351606
-0.3687201391242058 1.7377391737739987 0.3720661567506508
-0.3373567590528963 1.7966660145065663 0.38469671398879013
-0.2834259573563108 1.7325397246844088 0.3709957718416554
-0.24446785409730587 1.751448735758109 0.3750632498078315
-0.20268521385885366 1.7513510369760061 0.3750632498078315
-0.16076585607194507 1.7472529398663923 0.37420692656864163
-0.11785569324322001 1.723152609602986 0.3690690892134594
-0.07897673980573436 1.7610617918869502 0.3772040196258223
-0.03812779131658463 1.7859663208226593 0.38255594417079936
0.003862531314676081 1.8168682392901554 0.38919234081456655
0.045062998726582267 1.7607717544140233 0.3772040196258223
0.08841104715823099 1.800670466498804 0.38576709889778554
0.1695135268450946 1.7604807564071991 0.3772040196258223
0.21370590471691203 1.7803774586269827 0.38148555926180394
0.26138768736813767 1.816266077867045 0.38919234081456655
0.2956254889618884 1.7601858735315095 0.3772040196258223
0.34901968716436726 1.816061171245432 0.38919234081456655
0.39339948993337925 1.8159573996154976 0.38919234081456655
0.4319548187492671 1.7898671531694883 0.38362632907979477
0.4673230163392062 1.7547843907363547 0.37613363471682687
0.5204244883918211 1.7846602789555848 0.38255594417079936
0.5759842374346964 1.8155304685417395 0.38919234081456655
0.623201172463799 1.815420062951747 0.38919234081456655
0.6486454951374624 1.7543604111782087 0.37613363471682687
0.7156311101449429 1.8042038702272998 0.38683748380678096
0.7786068687593548 1.8360567687000477 0.393687967640343
0.8177162670020832 1.808965177230357 0.38790786871577637
0.8669393603855734 1.8038500718151778 0.38683748380678096
0.9358783703879259 1.835689026640644 0.393687967640343
0.9761953316783776 1.8085946115715252 0.38790786871577637
1.0435974607461034 1.829437092763642 0.3924034955415528
1.1144155373835323 1.8512716360374513 0.397113209557124
1.2129944261592773 1.9120412889827214 0.4101719156548636
1.2847733100922625 1.9238734486266649 0.4127408343324548
1.3306576888143595 1.8947660357557858 0.40653258654828783
1.4238200461904942 1.9295483792178088 0.41402530643124497
1.503359505156902 1.9403623431360337 0.41638013791904127
1.612311811306294 1.9831076844252276 0.42558545324039965
1.6347968540900832 1.9170549433246977 0.41145636223366455
1.6987469323068976 1.8999054048339536 0.407817058647078
-1.2045539960294271 1.4946928982307357 0.2543092867619937
-1.1868885908957085 1.545651730342482 0.26299634176348435
-1.1726184492963905 1.603618609299811 0.27287575277707954
-1.1749503131907928 1.6886242131144715 0.2873541642426009
-1.1507725811667848 1.7395678176962626 0.29604121924409155
-1.0960609496885048 1.7444398964386598 0.2968928905067693
-1.060006320354829 1.778355723297476 0.3026842672762446
-1.0239398836967544 1.8132714528019538 0.3086459661149887
-0.9364417400021217 1.7530667523677375 0.298425910962856
-0.8745843430074491 1.733922008187281 0.29518954798141384
-0.8288461732625385 1.7438150781392958 0.2968928905067693
-0.7921466354572405 1.7727293881325212 0.3018325960135669
-0.7305671820959305 1.7435852760566968 0.2968928905067693
-0.6664509691175614 1.7014353045978856 0.2897388559613653
-0.6412056997079517 1.7573764218972836 0.2992775822255337
-0.598221175664658 1.7672759305958652 0.30098092475088917
-0.5373355282400771 1.7191334546832642 0.29280487656809406
-0.4841675043786456 1.6870089815557803 0.2873541642426009
-0.4536066716500996 1.7329376518720883 0.29518954798141384
-0.39950976404543515 1.686811029533626 0.2873541642426009
-0.36087879757833546 1.7007207966387532 0.2897388559613653
-0.33548158927165633 1.7866616120667764 0.30438760980160007
-0.2842425680382523 1.7375416430348445 0.29604121924409155
-0.24864729227841276 1.7814585617834624 0.30353593853892236
-0.2016460107801319 1.7423485195001196 0.2968928905067693
-0.16250909396297875 1.7662571213610525 0.30098092475088917
-0.11976351410875694 1.7511571442724991 0.298425910962856
-0.08053780024304562 1.79606550435801 0.30609095232695555
-0.037916603093145096 1.7759658092085977 0.3026842672762446
0.003874222584219036 1.8218682208531738 0.3105196510150575
0.045449928678999316 1.7757708763710411 0.3026842672762446
0.08841104715823099 1.800670466498804 0.30694262358963326
0.1695135268450946 1.7604807564071991 0.3001292534882114
0.21130305273848957 1.760383041524627 0.3001292534882114
0.26052373381897526 1.8102680396530801 0.3086459661149887
0.2956254889618884 1.7601858735315095 0.3001292534882114
0.3449836147950942 1.7950705235772195 0.30609095232695555
0.3877677549539088 1.7899704741251024 0.3052392810642778
0.43822766122571266 1.8158525795822453 0.3096679797523798
0.46865400941038793 1.7597812874254037 0.3001292534882114
0.5189672628945533 1.7796636774310879 0.30353593853892236
0.5709116407418687 1.799542253439791 0.30694262358963326
0.6249162136339497 1.820416061635516 0.3105196510150575
0.6597274518011376 1.7843345520558305 0.30438760980160007
0.7259335582420102 1.8301798743642208 0.312222993540413
0.7697113159395088 1.8150774837728914 0.3096679797523798
0.8226827028679005 1.8199536316639138 0.3105196510150575
0.8645394518850691 1.7988556745310256 0.30694262358963326
0.9251868927754342 1.8147139410571382 0.3096679797523798
0.9821238401550851 1.8195808164267444 0.3105196510150575
1.0435974607461034 1.829437092763642 0.312222993540413
1.1174203967087277 1.856264618787757 0.3168220346032284
1.184496348422922 1.8671077256579909 0.3186956991978527
1.269442023374796 1.9009092324167516 0.32448707596732795
1.3306576888143595 1.8947660357557858 0.3234650623299368
1.431920447025442 1.9405293864088904 0.3313004460687498
1.527326709077073 1.9713064043866981 0.33658081601952955
1.5920313955213472 1.958155060860185 0.33436646667547854
1.685843271956983 1.9769358094113991 0.3376028296569207
1.7674259102920615 1.9767450477850252 0.3376028296569207
-1.2222979556659357 1.516734522795606 0.19273235636708272
-1.1868885908957085 1.545651730342482 0.19642161275462006
-1.1726184492963905 1.603618609299811 0.20380015586036887
-1.1658991467744328 1.6756030021285409 0.21295970098814268
-1.157391586012534 1.7495833124678357 0.22237369014154285
-1.1017185065285295 1.7534532128381 0.22288256302745849
-1.071932227499268 1.7983836448003998 0.22860728062798424
-1.0239398836967544 1.8132714528019538 0.23051551982815952
-0.9497986518007884 1.7780980288355013 0.22606296169441725
-0.8821509477729673 1.7489397275965164 0.22237369014154285
-0.84975963571953 1.7878641291531427 0.22733512116120075
-0.7966147925035874 1.7827398536572756 0.226699041427809
-0.728472580677598 1.7385803694284077 0.22110153067475935
-0.6594026859361363 1.6834187679785004 0.21410465360745007
-0.6258873389244898 1.7153404334182225 0.21817556086808987
-0.588409531405089 1.7382528652483593 0.22110153067475935
-0.5245287598792748 1.6781033884305587 0.21346857387405832
-0.47671154150740763 1.660991572801503 0.2113059058135938
-0.45125298516268497 1.7239321799985154 0.21932051348739726
-0.3985634304392354 1.6828088573208386 0.21410465360745007
-0.35600444193722325 1.6777093343324043 0.21346857387405832
-0.3382943439435163 1.8016682157264612 0.229243360361376
-0.28277267659857147 1.7285382377061165 0.21995659322078903
-0.24586100015767484 1.7614520110998935 0.224154722494242
-0.20049134986909245 1.732345801799224 0.22046545094136757
-0.16296783904945933 1.7712582029277752 0.2254268819610255
-0.11976351410875694 1.7511571442724991 0.22288256302745849
-0.08009178297524239 1.786064443651993 0.22733512116120075
-0.03812779131658463 1.7859663208226593 0.22733512116120075
0.003911634758253233 1.837868209538418 0.23395036252074464
0.045578905329804985 1.7807705836900471 0.226699041427809
0.08841104715823099 1.800670466498804 0.229243360361376
0.1297283788240792 1.785573829029474 0.22733512116120075
0.1714420373473607 1.7804762826444551 0.226699041427809
0.21370590471691203 1.7803774586269827 0.226699041427809
0.26138768736813767 1.816266077867045 0.23127882157436444
0.2981454686249704 1.7751800078583126 0.22606296169441725
0.346905549654506 1.805066047389503 0.22987944009476777
0.3888507789252433 1.7949679506310061 0.22860728062798424
0.4355737596947274 1.8048587178363025 0.22987944009476777
0.46998500248156955 1.7647781841144525 0.22479080222763376
0.5204244883918211 1.7846602789555848 0.22733512116120075
0.572496822484163 1.8045385557689944 0.22987944009476777
0.6249162136339497 1.820416061635516 0.2319149013077562
0.6597274518011376 1.7843345520558305 0.22733512116120075
0.7136498737598455 1.7992084939778277 0.229243360361376
0.7739472838543459 1.8250675967683867 0.23255098104114794
0.8249401639301598 1.8249483620275733 0.23255098104114794
0.8645394518850691 1.7988556745310256 0.229243360361376
0.9221321675457187 1.8087210254425072 0.23051551982815952
0.9848186050539045 1.8245745242592282 0.23255098104114794
1.0435974607461034 1.829437092763642 0.23318706077453968
1.1174203967087277 1.856264618787757 0.23662190346712483
1.1642311174827111 1.8351550779683319 0.23395036252074464
1.2507778516953687 1.8729528004665883 0.23878457152758936
1.2956117487441379 1.8448478933615462 0.23522252198752813
1.377426434398919 1.8666566044669102 0.23802126978138444
1.4902162384311184 1.9233930691251346 0.24527259087432005
1.6025772310704494 1.971130448910706 0.2513789593479483
1.7181725245706638 2.0148601874057714 0.25697645493566085
1.8236177530404318 2.039613792489995 0.2601568687679567
-1.1932624727581642 1.4806665184480299 0.12506166479868025
-1.1615294614357727 1.5125923514565112 0.12776752431696786
-1.1609107607018632 1.5875911574855206 0.1341093973681444
-1.163114210799535 1.671596530780726 0.14121228994379484
-1.157391586012534 1.7495833124678357 0.1478078294497098
-1.1080046308375484 1.7634679292475868 0.14899164991904953
-1.0659692739270483 1.7883696840489378 0.15110560424273192
-1.0273291505941693 1.8192794361619238 0.15372691163614985
-0.9631555635994552 1.803129305303265 0.15237397683694137
-0.8866909467126959 1.7579504308521923 0.14856885905431305
-0.8426300578352747 1.772847431627489 0.1498372316485225
-0.801082949549934 1.7927503191820302 0.1515283951074684
-0.7385266974491367 1.7626039928400272 0.14899164991904953
-0.6609689503413784 1.687422389752247 0.142649776867873
-0.6207812476488676 1.7013285167993881 0.14383359733721274
-0.5901011900361536 1.743256829690627 0.14738503858497332
-0.5260905590824835 1.6831070492273918 0.14231154820813555
-0.4830204436863052 1.6830063399903683 0.14231154820813555
-0.4499453746305892 1.7189291135615277 0.14535564646628993
-0.39430487280473187 1.6647988438121708 0.14078949907905836
-0.3551567136331177 1.6737072734750846 0.1415505186035323
-0.3382943439435163 1.8016682157264612 0.15237397683694137
-0.28652908962940893 1.7515470859691484 0.14814606818957657
-0.24516442712749037 1.7564503734290013 0.14856885905431305
-0.20326254431437338 1.756352395826454 0.14856885905431305
-0.16159160379001755 1.756254958227607 0.14856885905431305
-0.11915028162206662 1.742155622827687 0.14738503858497332
-0.07942275707353758 1.7710628525929675 0.1498372316485225
-0.037916603093145096 1.7759658092085977 0.15026002251325898
0.0038976051233049463 1.8318681839792104 0.15499528423035927
0.04570788198061067 1.7857702910090532 0.15110560424273192
0.08841104715823099 1.800670466498804 0.15237397683694137
0.1297283788240792 1.785573829029474 0.15110560424273192
0.1724062925984937 1.790474045763083 0.1515283951074684
0.21250447872770084 1.770380250075805 0.1498372316485225
0.25908382268043445 1.8002713887427912 0.15237397683694137
0.29982545506702507 1.7851760974095148 0.15110560424273192
0.3430616799356823 1.785074999764936 0.15110560424273192
0.3866847309825743 1.7849729976191986 0.15110560424273192
0.4355737596947274 1.8048587178363025 0.15279676770167785
0.47530897476629613 1.7847657708706481 0.15110560424273192
0.5218817138890889 1.7896568804800814 0.1515283951074684
0.5709116407418687 1.799542253439791 0.15237397683694137
0.6249162136339497 1.820416061635516 0.1541497025008863
0.6578804590238584 1.77933886190956 0.15068281337799544
0.7199898490867179 1.8151937456158043 0.15372691163614985
0.7650517310344997 1.8040883118412303 0.15279676770167785
0.8226827028679005 1.8199536316639138 0.1541497025008863
0.8645394518850691 1.7988556745310256 0.15237397683694137
0.9221321675457187 1.8087210254425072 0.15321955856641434
0.9821238401550851 1.8195808164267444 0.1541497025008863
1.0435974607461034 1.829437092763642 0.15499528423035927
1.12403104423926 1.8672491094131705 0.1582084968183824
1.1642311174827111 1.8351550779683319 0.15550263730009478
1.2541107366573292 1.8779450162068383 0.1591386407528544
1.3551899304196273 1.9297088544459928 0.16353567381021722
1.4451757521392659 1.958498447908526 0.1659878567936371
1.5458818983176037 1.9952630125204251 0.16911650717666116
1.5977099893048523 1.9651418906451925 0.16657977206837163
1.7011570857550358 1.994899938367694 0.16911650717666116
1.8013193048552198 2.0146657684048845 0.17080767063560706
-1.1932624727581642 1.4806665184480299 0.06241945482619767
-1.1784356088140027 1.53463201699637 0.06469846199458833
-1.1726184492963905 1.603618609299811 0.06761052587123959
-1.1658991467744328 1.6756030021285409 0.07064919706467297
-1.1666582401394392 1.763605076784507 0.07436313579044015
-1.1300060659191147 1.7985194366807904 0.07584026810971489
-1.0510618899964996 1.7633347821702832 0.07436313579044015
-1.0239398836967544 1.8132714528019538 0.07647332481797549
-0.9658269459591886 1.808135560596818 0.07626230591522196
-0.8917353498897083 1.7679622437916827 0.07457415469319369
-0.8473831097581115 1.7828585633112581 0.0752072114014543
-0.8033170280731075 1.7977555519444073 0.07584026810971489
-0.7343374946124716 1.752594179583449 0.07394109798493309
-0.6644931152715499 1.696430717721321 0.07157768426165852
-0.627346253202023 1.719343923388803 0.07254837222054226
-0.5917928486672183 1.7482607941328945 0.07377227984407776
-0.5220298737068952 1.670097507296289 0.07048038395490515
-0.4804395058502703 1.6740002175338666 0.07064919706467297
-0.4525605956947807 1.7289352464355032 0.07297041002604934
-0.39950976404543515 1.686811029533626 0.07119784721804966
-0.3551567136331177 1.6737072734750846 0.07064919706467297
-0.3326688345997963 1.7716550084070917 0.07478517359594723
-0.2889789216752333 1.7665528410204552 0.07457415469319369
-0.25004043833878176 1.7914618371252469 0.07562924920696136
-0.20788118795853106 1.7963632666300364 0.07584026810971489
-0.16388532922242055 1.7812603660612207 0.0752072114014543
-0.11949096362939467 1.7471564283319356 0.07377227984407776
-0.07835231244064272 1.7470602353652978 0.07377227984407776
-0.03749422664626601 1.7559647859804748 0.07415211688768662
0.003885913853761991 1.8268682024161922 0.0771485873192218
0.045578905329804985 1.7807705836900471 0.0752072114014543
0.08693270012030588 1.770673869860635 0.07478517359594723
0.13009244337049314 1.790572986651262 0.07562924920696136
0.17095990972179417 1.775477401085141 0.07499619249870076
0.21310519172230644 1.7753788543513938 0.07499619249870076
0.2576439115418937 1.7902747378325023 0.07562924920696136
0.29982545506702507 1.7851760974095148 0.07541823030420783
0.3430616799356823 1.785074999764936 0.07541823030420783
0.3899338028965777 1.79996542713691 0.07605128701246842
0.4343674460462406 1.799861529614031 0.07605128701246842
0.4779709609086594 1.794759564248746 0.07584026810971489
0.5175100373972856 1.774667075906591 0.07499619249870076
0.5693264589995742 1.7945459511105872 0.07584026810971489
0.6211431067036957 1.8094248168856222 0.07647332481797549
0.6504924879147416 1.759356101324479 0.07436313579044015
0.7017624554492606 1.7692362364809948 0.07478517359594723
0.7586977791622443 1.7891031423479875 0.07562924920696136
0.8132013448775646 1.798975716503038 0.07605128701246842
0.8621395433845648 1.7938612772468736 0.07584026810971489
0.9119498310353508 1.788744798817341 0.07562924920696136
0.9848186050539045 1.8245745242592282 0.0771485873192218
1.0435974607461034 1.829437092763642 0.07735960622197534
1.1813299037293268 1.8621151207366975 0.07875233198636615
1.2614431153585401 1.8889279384449136 0.07989183808610523
1.3467788379578844 1.9177284050599839 0.08111574570964072
1.4238200461904942 1.9295483792178088 0.0816221951011192
1.5126371919420603 1.952340766197007 0.08259288306000295
1.612311811306294 1.9831076844252276 0.08390119723842238
1.712217141269197 2.007874124036938 0.08495629175219004
1.7781290931186844 1.9887200184524016 0.0841544219341616
-1.1827774319221818 1.46764195468727 0.0
-1.1953416645848234 1.5566715631124115 0.0
-1.1850578139100123 1.6206477022190076 0.0
-1.1596329993315986 1.6665883818941132 0.0
-1.138196503521767 1.7205384253879201 0.0
-1.1174338173010767 1.7784900038618168 0.0
-1.0510618899964996 1.7633347821702832 0.0
-1.018291150426538 1.8032582267800505 0.0
-0.9717040126269137 1.8191493699860504 0.0
-0.8917353498897083 1.7679622437916827 0.0
-0.84975963571953 1.7878641291531427 0.0
-0.7966147925035874 1.7827398536572756 0.0
-0.7406212988674693 1.7676088994683163 0.0
-0.6664509691175614 1.7014353045978856 0.0
-0.6240637286862964 1.7103361604384562 0.0
-0.5901011900361536 1.743256829690627 0.0
-0.5289017827537666 1.692113590943018 0.0
-0.4755644466295546 1.656988811946541 0.0
-0.44393035994776997 1.6959149840948813 0.0
-0.3985634304392354 1.6828088573208386 0.0
-0.3543090105928567 1.669705331886454 0.0
-0.3317312497091763 1.7666528071871967 0.0
-0.28816231099329187 1.7615509226700194 0.0
-0.23861662735766737 1.7094348839238556 0.0
-0.19575723462797331 1.6913346115288315 0.0
-0.16296783904945933 1.7712582029277752 0.0
-0.11976351410875694 1.7511571442724991 0.0
-0.08120682614475043 1.8110670954170356 0.0
-0.037916603093145096 1.7759658092085977 0.0
0.003885913853761991 1.8268682024161922 0.0
0.0460948119330277 1.800769412966071 0.0
0.0886574383312185 1.805669899271832 0.0
0.13009244337049314 1.790572986651262 0.0
0.1724062925984937 1.790474045763083 0.0
0.2155080437007289 1.7953732714537494 0.0
0.25476408926481214 1.7702814360119243 0.0
0.3023454347301071 1.8001702317363182 0.0
0.3430616799356823 1.785074999764936 0.0
0.3877677549539088 1.7899704741251024 0.0
0.4331611323977539 1.7948643413917598 0.0
0.47264698862393284 1.7747719774925503 0.0
0.5160528119000177 1.7696704743820941 0.0
0.5709116407418687 1.799542253439791 0.0
0.6211431067036957 1.8094248168856222 0.0
0.6578804590238584 1.77933886190956 0.0
0.707706164604553 1.7842223652294114 0.0
0.7608157631196628 1.7940981988457352 0.0
0.808686422753046 1.788986255775719 0.0
0.8669393603855734 1.8038500718151778 0.0
0.9094042469077586 1.7837507421610495 0.0
0.970805801880739 1.7986071959065575 0.0
1.0470147869134148 1.8354291605220872 0.0
1.1276369040860936 1.873240736330377 0.0
1.17753021539341 1.856124066251 0.0
1.2654425296355452 1.8949185259189267 0.0
1.3586945244266495 1.9347006686854167 0.0
1.4451757521392659 1.958498447908526 0.0
1.5412431470899173 1.9892739199840481 0.0
1.607444569540697 1.977119126159714 0.0
1.7232771967833582 2.0208483097061825 0.0
1.7950757904002632 2.0076803787623314 0.0
-1.2045539960294271 1.4946928982307357 -0.06301030574147257
-1.1953416645848234 1.5566715631124115 -0.06562694416048638
-1.182130935375831 1.6166408989722247 -0.06815917602461627
-1.1477968969403411 1.6495606995603673 -0.0695519017890071
-1.138196503521767 1.7205384253879201 -0.07254837222054226
-1.1142907551465673 1.7734826456570734 -0.07478517359594723
-1.0629877971409387 1.783362703673207 -0.0752072114014543
-1.0098180505212135 1.7882383877471955 -0.07541823030420783
-0.9770467773463805 1.829161880573156 -0.0771485873192218
-0.9043463578322387 1.7929917761404082 -0.07562924920696136
-0.8521361616809484 1.7928696949950276 -0.07562924920696136
-0.7988488710267607 1.787745086419653 -0.07541823030420783
-0.7448105017041344 1.7776187127248944 -0.07499619249870076
-0.6680172335228035 1.705438926371632 -0.07195751627417989
-0.6258873389244898 1.7153404334182225 -0.07237955407968695
-0.5819812447399725 1.7192378480893118 -0.07254837222054226
-0.5204680745036867 1.6650938464994556 -0.07026936505215162
-0.4718364481011793 1.6439800479246274 -0.06938308364815177
-0.44288425281655686 1.6919124593757833 -0.07140886612080319
-0.39738049932983455 1.6778060824170733 -0.0708180152055283
-0.3532493691606082 1.664702845266321 -0.07026936505215162
-0.32891849503731624 1.751646203527512 -0.07394109798493309
-0.2906121430391162 1.7765566777213264 -0.07499619249870076
-0.23987046877656606 1.7184379032805306 -0.07254837222054226
-0.19887483009949483 1.7183420447146902 -0.07254837222054226
-0.15902262911825704 1.728248877606922 -0.07297041002604934
-0.11976351410875694 1.7511571442724991 -0.07394109798493309
-0.07964576570743918 1.776063382945976 -0.07499619249870076
-0.03770541486970555 1.7659652975945364 -0.07457415469319369
0.0039233260277961885 1.8428681911014362 -0.07782384982046811
0.04570788198061067 1.7857702910090532 -0.07541823030420783
0.0886574383312185 1.805669899271832 -0.07626230591522196
0.13234964703025295 1.8215678115820768 -0.07693756841646826
0.17337054784962672 1.8004718088817109 -0.07605128701246842
0.2155080437007289 1.7953732714537494 -0.07584026810971489
0.25404413369554174 1.7652831105567799 -0.07457415469319369
0.3050334210482019 1.8161640226833564 -0.07672654951371473
0.3421007125059764 1.7800772378587941 -0.0752072114014543
0.3866847309825743 1.7849729976191986 -0.07541823030420783
0.43074850510078033 1.784869964947217 -0.07541823030420783
0.46865400941038793 1.7597812874254037 -0.07436313579044015
0.51459558640275 1.7646738728575975 -0.07457415469319369
0.5661560955149854 1.7845533464521803 -0.07541823030420783
0.623201172463799 1.815420062951747 -0.07672654951371473
0.663421437355696 1.794325932348371 -0.07584026810971489
0.6997812190641632 1.7642408602315227 -0.07457415469319369
0.7629337470770813 1.7990932553434826 -0.07605128701246842
0.8177162670020832 1.808965177230357 -0.07647332481797549
0.8621395433845648 1.7938612772468736 -0.07584026810971489
0.9094042469077586 1.7837507421610495 -0.07541823030420783
0.9794290752562659 1.8145871085942604 -0.07672654951371473
1.0527102852618029 1.8454158607522573 -0.07803486872322164
1.1210261849140644 1.8622561266628646 -0.07875233198636615
1.174363770699815 1.8511314613297067 -0.07828809341896088
1.2887728038315132 1.92986415512449 -0.0816221951011192
1.3804230406926319 1.965649964575541 -0.08314153321337964
1.4547490329318264 1.9714761100473932 -0.08339475287803139
1.5559326642249298 2.0082395581737393 -0.08495629175219004
1.6171791497765413 1.9890963616742356 -0.0841544219341616
1.7011570857550358 1.994899938367694 -0.08440764159881335
1.7950757904002632 2.0076803787623314 -0.08495629175219004
-1.2289201773699427 1.4537497520934721 -0.12277858606499979
-1.179551213739559 1.4636343322961878 -0.12362416779447276
-1.164603348053364 1.5165996176564027 -0.12810576305683463
-1.1528617138895136 1.5765722694364985 -0.1331792534336724
-1.12203586567871 1.6125003022764828 -0.13622335169182678
-1.138196503521767 1.7205384253879201 -0.14535564646628993
-1.1142907551465673 1.7734826456570734 -0.1498372316485225
-1.057024843568719 1.7733487429217452 -0.1498372316485225
-1.0041693172509973 1.7782251617252922 -0.15026002251325898
-0.9743753949866472 1.8241556252796032 -0.1541497025008863
-0.9174618301460821 1.8190225375231726 -0.15372691163614985
-0.8473831097581115 1.7828585633112581 -0.15068281337799544
-0.801082949549934 1.7927503191820302 -0.1515283951074684
-0.7531889073774649 1.7976383392380506 -0.1519511859722049
-0.6680172335228035 1.705438926371632 -0.1441718259969502
-0.6240637286862964 1.7103361604384562 -0.14459461686168668
-0.5853645620021017 1.729245776973847 -0.1462012281957629
-0.5204680745036867 1.6650938464994556 -0.14078949907905836
-0.4669613888804635 1.6269686423373018 -0.13757628649103526
-0.43922295579704645 1.6779039210652227 -0.14188875734339906
-0.39430487280473187 1.6647988438121708 -0.14078949907905836
-0.3532493691606082 1.664702845266321 -0.14078949907905836
-0.33079366481855627 1.7616506059673018 -0.14899164991904953
-0.2963284178127063 1.8115701061743756 -0.15321955856641434
-0.24321401267840717 1.742445716401434 -0.14738503858497332
-0.2055718661364522 1.776357831228245 -0.15026002251325898
-0.16205034887649813 1.7612560397943298 -0.14899164991904953
-0.120444878123413 1.7611587552809962 -0.14899164991904953
-0.07942275707353758 1.7710628525929675 -0.1498372316485225
-0.0382333854283044 1.79096657662969 -0.1515283951074684
0.0038976051233049463 1.8318681839792104 -0.15499528423035927
0.046352765234639055 1.8107688276040828 -0.15321955856641434
0.0891995012615626 1.8166686990508458 -0.15372691163614985
0.13118463700973493 1.8055704595166269 -0.15279676770167785
0.1728884202240602 1.795472927322397 -0.1519511859722049
0.2173101826845458 1.8103690842805158 -0.15321955856641434
0.2583638671111641 1.7952730632876468 -0.1519511859722049
0.3050334210482019 1.8161640226833564 -0.15372691163614985
0.3430616799356823 1.785074999764936 -0.15110560424273192
0.38451868303990544 1.7749780446073908 -0.15026002251325898
0.4235106232098599 1.754886835613589 -0.14856885905431305
0.4739779816951145 1.7797688741815993 -0.15068281337799544
0.51459558640275 1.7646738728575975 -0.14941444078378602
0.5645709137726909 1.7795570441229767 -0.15068281337799544
0.6211431067036957 1.8094248168856222 -0.15321955856641434
0.6652684301329752 1.7993216224946411 -0.15237397683694137
0.707706164604553 1.7842223652294114 -0.15110560424273192
0.7608157631196628 1.7940981988457352 -0.1519511859722049
0.8226827028679005 1.8199536316639138 -0.1541497025008863
0.8746190904745201 1.8198321907547939 -0.1541497025008863
0.9195865834181266 1.8037269687862156 -0.15279676770167785
0.9875133699527237 1.8295682320917122 -0.15499528423035927
1.0652403680491174 1.86738657744846 -0.1582084968183824
1.140858270788655 1.8952098366233023 -0.16057612767693255
1.1813299037293268 1.8621151207366975 -0.1577857059536459
