x y z 
2.269193800435811 -0.42097586159378453 1.1795696731213592
2.2652106058206263 -0.4733223327281491 1.17513525780181
2.2919487046983127 -0.5338577621839554 1.1873300981669348
2.2891160980483782 -0.5881206713497092 1.1834498195653587
2.2431900228139616 -0.6298302590532755 1.1562887944573614
2.2980048762590037 -0.7032787847653486 1.1834498195653587
2.3397088220031907 -0.775788476409999 1.2034049528184827
2.261271580481925 -0.8640849585540052 1.1562887944573614
2.3470212755768047 -0.9614820986216864 1.199524806374483
2.3521037135604104 -1.0273273650773567 1.199524806374483
2.4365797727916023 -1.134210068101918 1.2416522805405057
2.3940492241959332 -1.1809310969579114 1.2161540620591569
2.3755512841093935 -1.2401436688241634 1.2034049528184827
2.4295950786859866 -1.3425819119217153 1.2289031712998313
2.333464252619422 -1.3575789777742622 1.17513525780181
2.4915093982816297 -1.5339901992997138 1.2549557908143059
2.3540978206644145 -1.520945571631271 1.1795696731213592
2.279837248793226 -1.5464090948398121 1.1374421989553367
2.278854936357357 -1.6246402984556103 1.133562052511337
2.3283010056074613 -0.4330839456062256 1.0938720900995789
2.3479161445441075 -0.49229573265853743 1.1013781263700249
2.329801516976484 -0.5434812465798181 1.090369312941504
2.310642891458323 -0.5941343419844096 1.0788601368630861
2.3304967859528416 -0.6564424125148536 1.086366053829133
2.282566389772793 -0.6981743078164389 1.060845769118415
2.3170185424693237 -0.7676912663061105 1.075357359705011
2.3837343219232303 -0.8523857594145342 1.1053812661779967
2.3493151262814886 -0.9002424622528422 1.086366053829133
2.369859540153692 -0.9714934234061886 1.0938720900995789
2.414530785476178 -1.0564566280852798 1.1128873024484427
2.3886082236151434 -1.1104404910354744 1.0978752299075507
2.4013668188895947 -1.1847732219789613 1.1013781263700249
2.431089871424976 -1.2709870227655606 1.1128873024484427
2.5304459888647473 -1.401725601152625 1.1574227995080242
2.4430023509317857 -1.4253185443313547 1.1128873024484427
2.3700617116896265 -1.4548893437308263 1.075357359705011
2.324446322108678 -1.5006271016027157 1.0508378002940866
2.2936435087614804 -1.5563534317867076 1.033323795199312
2.258616574014778 -1.609329645364199 1.0138082202005516
2.244978962605049 -1.679531586809427 1.004300733330519
2.325452860712374 -0.48714245182066895 0.9777581551399196
2.3451471396151304 -0.5473826306810192 0.9844888760417734
2.349595729346825 -0.6050161083899955 0.9844888760417734
2.3777452671289185 -0.6708443189271223 0.9948094074764451
2.358730145989489 -0.723356578001909 0.9844888760417734
2.3706505593695835 -0.7868302861004026 0.987630000376569
2.4653864908155 -0.8837014656753128 1.0266684811593847
2.4373589190371296 -0.9364000673709846 1.0123094529938728
2.4176121176766983 -0.9924261243682289 1.0015402353611789
2.3989239554816995 -1.0491742833960636 0.991219703926507
2.3802654536005954 -1.106306705110009 0.9808991724918353
2.418092037536856 -1.1935548481467566 0.9948094074764451
2.431089871424976 -1.2709870227655606 0.9979505318112407
2.478970081731454 -1.3715377223424656 1.0158992635266906
2.493558203141821 -1.4565828402100947 1.0194889670766287
2.4577151937205675 -1.5119794836651683 1.0015402353611789
2.3763366970633233 -1.5361845971641825 0.9642966063533321
2.360550671221068 -1.6045451483840114 0.954873447314705
2.278854936357357 -1.6246402984556103 0.9176298183068583
2.2246779867024276 -1.6634112959334855 0.8920528328191901
2.2733789398839153 -0.47519622257083494 0.8489859222025792
2.2991100277849172 -0.5356784163660335 0.857364131261558
2.341395209074834 -0.6027252317596584 0.8721256108729823
2.35412102654088 -0.6636433657209879 0.8753172461492051
2.3659350511254145 -0.725738759196825 0.8781100459151101
2.355179690686387 -0.7813093812552008 0.8721256108729823
2.359962168366965 -0.8432685272815296 0.8721256108729823
2.4124995794558455 -0.9261908958218604 0.8904777515096833
2.3625928758569983 -0.968308026541675 0.8693329062264454
2.3749936481982634 -1.0380080987052267 0.8721256108729823
2.444922791443273 -1.1383439772253905 0.8968611171814969
2.425409632230518 -1.1973969731678067 0.8872861162334605
2.431089871424976 -1.2709870227655606 0.8872861162334605
2.445353111671867 -1.351823159265496 0.8904777515096833
2.51041023758329 -1.467004323933639 0.9128194838013468
2.4577151937205675 -1.5119794836651683 0.8904777515096833
2.3922213562947237 -1.5470694423904814 0.8633484711843177
2.2872713498215056 -1.5517637097530803 0.8214577112475278
2.1787286023487265 -1.5488930843593551 0.7783701118619962
2.2054457781794143 -1.648139675639719 0.7859503645422353
2.3497426235250662 -0.009195803264858998 0.785900142055582
2.3306930528610614 -0.06126175327847716 0.77783063103357
2.349875967995579 -0.1148738868748245 0.7830933919821637
2.330776096553329 -0.16628816771763452 0.7750238809601516
2.3662409812023837 -0.22293943591677567 0.785900142055582
2.370445237333686 -0.27740746210941586 0.785900142055582
2.3746914805566597 -0.33241944992986183 0.785900142055582
2.325452860712374 -0.48714245182066895 0.7644984427117115
2.3451471396151304 -0.5473826306810192 0.7697611200115578
2.341395209074834 -0.6027252317596584 0.7669543699381395
2.35412102654088 -0.6636433657209879 0.7697611200115578
2.374168877866018 -0.728461136085017 0.7750238809601516
2.3634306567166816 -0.7842538053381046 0.7697611200115578
2.4323121259312908 -0.8710165963138848 0.7915137258511662
2.4124995794558455 -0.9261908958218604 0.7830933919821637
2.369859540153692 -0.9714934234061886 0.7669543699381395
2.390600478192742 -1.045290443394443 0.7722171308867333
2.4125939982033726 -1.1223252795686962 0.77783063103357
2.425409632230518 -1.1973969731678067 0.7802866419087453
2.431089871424976 -1.2709870227655606 0.7802866419087453
2.4369489943896894 -1.346894591938575 0.7802866419087453
2.51041023758329 -1.467004323933639 0.8027408934423346
2.4175845443310644 -1.4858417383501104 0.7697611200115578
2.383749571702258 -1.5412642146713216 0.7564289316896995
2.2936435087614804 -1.5563534317867076 0.7245017104486415
2.147838510450674 -1.5255242231339643 0.6743304046084956
2.1359956409603313 -1.5929917645877643 0.668365997965921
2.415300922936605 -0.33877098791628457 0.693441538687954
2.3019685959823444 -0.4817549487142119 0.6557280329226824
2.3062713508715222 -0.5374990705481117 0.6557280329226824
2.341395209074834 -0.6027252317596584 0.664852254153726
2.35412102654088 -0.6636433657209879 0.6672853508101918
2.358730145989489 -0.723356578001909 0.6672853508101918
2.355179690686387 -0.7813093812552008 0.664852254153726
2.352727197252805 -0.840493729829239 0.6627232764511023
2.38038960945319 -0.9130040534633795 0.6694144010256801
2.3781642286350015 -0.9751338459672201 0.6672853508101918
2.3989239554816995 -1.0491742833960636 0.6718474976821458
2.4365797727916023 -1.134210068101918 0.6812758378670315
2.4672231773054465 -1.2193513003035181 0.6885752728621579
2.464622287557012 -1.2896092497479246 0.6861421036928276
2.478970081731454 -1.3715377223424656 0.6885752728621579
2.459854134258882 -1.4357398727630053 0.6812758378670315
2.3109219796007348 -1.4163706733665105 0.6365671610862046
2.3922213562947237 -1.5470694423904814 0.6581611295791483
2.479496794083685 -1.6902193517520834 0.6812758378670315
2.537692243908355 -1.820454967446425 0.6958746353444198
2.5366692841838354 -1.9111526109464854 0.693441538687954
2.2717988481514224 0.29892687774549836 0.5653380675185882
2.2608242742626947 0.2461962643704965 0.5614587766231856
2.310598949078795 0.1990663849101627 0.5733551864901043
2.298622613754821 0.14632409503659372 0.5692173584139908
2.2995689114821714 0.04310378266485315 0.5674069815566449
2.326648480450344 -0.008862501395424327 0.5733551864901043
2.3459201719159712 -0.1675753183414863 0.5751655633474502
2.3743327856327507 -0.22381875199010998 0.5813723671208574
2.3390319444741947 -0.27324638499847764 0.5712862724520475
2.3746914805566597 -0.33241944992986183 0.5793033914235637
2.395259486358003 -0.3909830113574157 0.5834412811589141
2.3211674192883933 -0.43162263370337983 0.5635277523204794
2.3019685959823444 -0.4817549487142119 0.55757954738702
2.2847871376974336 -0.532037045990495 0.5521485401334563
2.318843411730314 -0.5964252186147468 0.5596484614250766
2.323306831629019 -0.6542508277971505 0.5596484614250766
2.335057587372356 -0.7155296430306092 0.5614587766231856
2.32423819922111 -0.7702676593166028 0.55757954738702
2.359962168366965 -0.8432685272815296 0.5653380675185882
2.404213215247443 -0.9227878724452542 0.5751655633474502
2.4020405173965047 -0.9856001964482404 0.5733551864901043
2.431177740054092 -1.0642243080885212 0.5793033914235637
2.453265561457821 -1.1424777631508558 0.5834412811589141
2.458860318753428 -1.2149603563615088 0.5834412811589141
2.464622287557012 -1.2896092497479246 0.5834412811589141
2.4957785667612478 -1.3813950038809506 0.5896481465915584
2.493558203141821 -1.4565828402100947 0.5875791708942646
2.543256695332652 -1.5676940563675252 0.5981825249022071
2.5150640002602227 -1.6312464553987687 0.5896481465915584
2.5304738123984105 -1.7269369456432109 0.5917170606296152
2.573908073605512 -1.847852836677387 0.6005100377802117
2.554833107439282 -1.925575864079807 0.5940446351668567
2.2717988481514224 0.29892687774549836 0.4679727517805941
2.283710390530629 0.24855804320191663 0.46968534721899535
2.283642624960489 0.145485430481389 0.4679727517805941
2.29559620160415 0.09457202316541113 0.46968534721899535
2.3075569498527164 -0.06038484162595431 0.46968534721899535
2.349875967995579 -0.1148738868748245 0.47782030315134755
2.307555341468553 -0.1643145504001052 0.4679727517805941
2.34713852276117 -0.27432020102626054 0.47460912290437207
2.3665697373106265 -0.33114916504733344 0.47782030315134755
2.265064550971974 -0.3674795804615201 0.4555562562122603
2.305880989340704 -0.4284912155028507 0.4632630377650229
2.3019685959823444 -0.4817549487142119 0.4615504423266217
2.2991100277849172 -0.5356784163660335 0.46005190855802597
2.318843411730314 -0.5964252186147468 0.4632630377650229
2.345904005853498 -0.6611387187994003 0.4679727517805941
2.3432916595032776 -0.7182521010529995 0.4664742180119984
2.3397088220031907 -0.775788476409999 0.46476157153361863
2.3754658539135387 -0.8492145893289021 0.4711839320275696
2.4207859436642476 -0.9295939191984668 0.4795328985897488
2.425916806158008 -0.9960665469292604 0.4795328985897488
2.431177740054092 -1.0642243080885212 0.4795328985897488
2.4365797727916023 -1.134210068101918 0.4795328985897488
2.4504977094297975 -1.2105695432776111 0.48124554506812856
2.464622287557012 -1.2896092497479246 0.4829581405065298
2.487374199013632 -1.3764662896693864 0.4863833824233108
2.5283154457041097 -1.478077101861188 0.49344792792667835
2.5707144550652727 -1.5855777423215587 0.5007265861398299
2.5860160167889696 -1.6798657998340933 0.5024391815782312
2.575078671773161 -1.7590648175007109 0.4987998779916446
2.5558001587569334 -1.8341539020619064 0.49344792792667835
2.5195738461959567 -1.897577724973607 0.48467078698490956
2.3174879343744124 0.3047276332303085 0.3801864334016963
2.298636221678428 0.2500983443886067 0.3762687415322898
2.333526588206342 0.20089021644856012 0.3815490911776249
2.345559515145654 0.1489518884260338 0.38291178956444283
2.333614011412389 0.0958070634416764 0.3801864334016963
2.353691986493456 0.043592070054138746 0.38291178956444283
2.381873667644971 -0.009659528506250396 0.3869998035031181
2.353829155869406 -0.06213866493100001 0.3815490911776249
2.349875967995579 -0.1148738868748245 0.3801864334016963
2.36207353136024 -0.16894825172884137 0.3815490911776249
2.3905161533430026 -0.22557735793156114 0.3856371457271894
2.3866586355056065 -0.27955512616760514 0.3842744473403715
2.2894122082736055 -0.3190813072316061 0.36724102208681697
2.279304800120844 -0.37005030036562714 0.36485635067349714
2.2539076134576828 -0.41784449316545913 0.3599166451666996
2.2733789398839153 -0.47519622257083494 0.36247163864928816
2.2919487046983127 -0.5338577621839554 0.36485635067349714
2.3034673751209063 -0.5921298078642837 0.36604868638015703
2.3387140515296756 -0.6589471340816972 0.3711587139562234
2.3504963192488852 -0.720634201113717 0.3723510496628833
2.3789015253998778 -0.7897747101833064 0.3762687415322898
2.3754658539135387 -0.8492145893289021 0.3749060837563611
2.429072554828727 -0.9329970439943784 0.38291178956444283
2.4176121176766983 -0.9924261243682289 0.3801864334016963
2.422854262765135 -1.0603404680869006 0.3801864334016963
2.444922791443273 -1.1383439772253905 0.38291178956444283
2.418092037536856 -1.1935548481467566 0.3776313993082185
2.399652840930373 -1.2535284681771637 0.373713707438812
2.4369489943896894 -1.346894591938575 0.3788237756257676
2.493558203141821 -1.4565828402100947 0.3869998035031181
2.4915093982816297 -1.5339901992997138 0.3856371457271894
2.5065919631856506 -1.6254410546681133 0.3869998035031181
2.5665823754515023 -1.7529451273299104 0.39551651612989536
2.5643216947756713 -1.8406005838427917 0.3939835362846979
2.5815445223179867 -1.9467864590589907 0.39551651612989536
2.268784796620867 0.24701776649748344 0.27720382988739495
2.2428130509058484 0.19367420047029701 0.27338735148704446
2.287592577712758 0.09431201876453146 0.278094338481076
2.277379455471755 -0.059241045003979434 0.2752955755218826
2.234658480640047 -0.2594208356269991 0.267917062746808
2.268092208665397 -0.3157467431635968 0.2716063039690082
2.2498074702861546 -0.36472529712085844 0.26880757134048905
2.297728388681644 -0.42682115897737105 0.2742778600807255
2.2948212428173522 -0.4801152811401146 0.27338735148704446
2.2919487046983127 -0.5338577621839554 0.27249684289336346
2.2891160980483782 -0.5881206713497092 0.2716063039690082
2.35412102654088 -0.6636433657209879 0.27911205392223315
2.3278529276267483 -0.7131475429698916 0.2752955755218826
2.3397088220031907 -0.775788476409999 0.27618608411556367
2.3920027899329215 -0.8555569295001662 0.28203802372890263
2.3493151262814886 -0.9002424622528422 0.27618608411556367
2.4020405173965047 -0.9856001964482404 0.28203802372890263
2.422854262765135 -1.0603404680869006 0.28394627809441497
2.4125939982033726 -1.1223252795686962 0.28203802372890263
2.4337722415541485 -1.2017877862517046 0.28394627809441497
2.4153713561776744 -1.2622577454713624 0.2810203082877455
2.4537572289540455 -1.3567517265924167 0.2849639935355721
2.4767061687003515 -1.4461613564865496 0.28699945474856053
2.4915093982816297 -1.5339901992997138 0.2880172005203918
2.498120178593185 -1.6196358269489532 0.2880172005203918
2.5219777692818277 -1.7208174378503025 0.2900526617333803
2.537692243908355 -1.820454967446425 0.2910703771745374
2.5633806990625407 -1.9323632059256692 0.29323304523500193
2.2141907875025777 0.29161287124190777 0.17993996541007024
2.268784796620867 0.24701776649748344 0.1842524463425634
2.2876713099512473 0.19724255337176527 0.1855208088566435
2.276652042889416 0.14509405813233373 0.1842524463425634
2.314603165363461 0.04323941864961606 0.18678919153098228
2.2168527757357546 -0.10670439114597613 0.17757234463164942
2.213662796340909 -0.15633427790791965 0.17698043943704422
2.210476579435983 -0.206012909416396 0.176388534242439
2.2488451134412384 -0.26130002967693094 0.17926350809059532
2.245757293713843 -0.31225344080768036 0.17867160289599013
2.256927473607127 -0.3660106351836398 0.17926350809059532
2.276327386754879 -0.4224371734966303 0.18053187060467543
2.3407685479406553 -0.490656009237452 0.1855208088566435
2.3451471396151304 -0.5473826306810192 0.1855208088566435
2.3342196927374173 -0.6007206976395326 0.1842524463425634
2.369528246441537 -0.6683396720055347 0.18678919153098228
2.374168877866018 -0.728461136085017 0.18678919153098228
2.32423819922111 -0.7702676593166028 0.18230760634874973
2.3754658539135387 -0.8492145893289021 0.18611273421150737
2.4124995794558455 -0.9261908958218604 0.18873403152479595
2.393735828915195 -0.9819597738872088 0.18678919153098228
2.4072474327706566 -1.0530581233976841 0.18746564885045716
2.364622449026914 -1.0985557025022525 0.1835759688628298
2.3856866148723026 -1.1765402838740138 0.1848443515371686
2.464622287557012 -1.2896092497479246 0.1907634236434793
2.4211909614038087 -1.3376533445947947 0.18678919153098228
2.418777598506119 -1.4103376905959897 0.18611273421150737
2.433425656402167 -1.4961593125513908 0.18678919153098228
2.4811763569261465 -1.6080251984991378 0.1900869663240044
2.5304738123984105 -1.7269369456432109 0.19346929324189624
2.5206494258281444 -1.8075617960074915 0.1921163584426878
2.4939305618434577 -1.877215294873714 0.18941048884427084
2.15161664538102 0.28366836352408276 0.08715089236569679
2.162314500401332 0.23603034998511288 0.08744631782333423
2.1800112981075173 0.18867849128353575 0.08803717880078411
2.1428316826891463 0.13760203698294787 0.08630681675468264
2.1405240208388108 0.08953437397048103 0.0860535920589434
2.19132323938232 0.0421272121980036 0.08803717880078411
2.160973158260912 -0.006471423517961469 0.0866022422123201
2.1516397756363776 -0.054475221200706955 0.0860535920589434
2.1815813801072426 -0.10453823116257385 0.08715089236569679
2.172269150820963 -0.15281607984176823 0.0866022422123201
2.1760868326202667 -0.20227586196385586 0.0866022422123201
2.1799382316100697 -0.2521724654302821 0.0866022422123201
2.176721507922855 -0.30145586787448125 0.08630681675468264
2.2365845376880844 -0.3623382282103946 0.08862802971605901
2.2539076134576828 -0.41784449316545913 0.0891766798694357
2.2580632526556337 -0.4716826651540519 0.0891766798694357
2.2847871376974336 -0.532037045990495 0.09010515700424625
2.2891160980483782 -0.5881206713497092 0.09010515700424625
2.293519703080718 -0.6451713520771973 0.09010515700424625
2.3504963192488852 -0.720634201113717 0.0922575568558548
2.387152491430172 -0.7927191342662103 0.0935658710342742
2.3837343219232303 -0.8523857594145342 0.09322824481473854
2.3886759736615923 -0.9164070768399856 0.09322824481473854
2.3781642286350015 -0.9751338459672201 0.09259518307539044
2.390600478192742 -1.045290443394443 0.09289061859520288
2.3802654536005954 -1.106306705110009 0.0922575568558548
2.418092037536856 -1.1935548481467566 0.0935658710342742
2.439472912998654 -1.2756425448243627 0.09419893277362229
2.3896751458974848 -1.3191709967918765 0.09196213139821734
2.379807158997683 -1.3862379415450892 0.09132906965886925
2.393295007012664 -1.4700215672363328 0.0916244951165067
2.42399092723963 -1.5688393058545742 0.09259518307539044
2.4306439131506434 -1.655031725998129 0.09259518307539044
2.437565782921092 -1.7447076572887517 0.09259518307539044
2.4693559174998874 -1.8577014342154183 0.0935658710342742
2.1456571581680923 0.2829117380146925 0.0
2.1294779091142115 0.2326417118566517 0.0
2.1261810545171875 0.1843964413335389 0.0
2.156812846831293 0.1383847816810584 0.0
2.1665361562803107 0.09037939989659205 0.0
2.170275283948514 0.04193732181933553 0.0
2.115789131823898 -0.005819313568208598 0.0
2.1576753224784513 -0.054703982343119434 0.0
2.20274431359104 -0.10583793305491823 0.0
2.165201995887367 -0.1522154163701591 0.0
2.169006654462747 -0.20150647677794922 0.0
2.2072982353260735 -0.25579663452732887 0.0
2.218346107696073 -0.30796618200673836 0.0
2.2223445310461396 -0.35976755208483185 0.0
2.2335258688404713 -0.4136693020795562 0.0
2.223347224290508 -0.4637184937051665 0.0
2.2489805222644095 -0.5229337750801043 0.0
2.2819405817109617 -0.5861161372295836 0.0
2.2863297487568954 -0.6429797673594942 0.0
2.3278529276267483 -0.7131475429698916 0.0
2.3170185424693237 -0.7676912663061105 0.0
2.359962168366965 -0.8432685272815296 0.0
2.364852367867339 -0.9066232578581107 0.0
2.3781642286350015 -0.9751338459672201 0.0
2.3989239554816995 -1.0491742833960636 0.0
2.4042512281888246 -1.118191493643231 0.0
2.4097294282132253 -1.1891640350628592 0.0
2.399652840930373 -1.2535284681771637 0.0
2.358159330391161 -1.3006886489889586 0.0
2.3123992723461786 -1.3445521619428051 0.0
2.303529544562865 -1.4115558600700058 0.0
2.3456260360719488 -1.5151403439121107 0.0
2.438078267383998 -1.6603865232892892 0.0
2.4620647862944076 -1.7632415552091874 0.0
2.4693559174998874 -1.8577014342154183 0.0
2.0810965597767406 0.27471502680463517 -0.0841544219341616
2.1553491916117054 0.2353115509254098 -0.08715089236569679
2.186989244233058 0.18923356798141122 -0.08833260425842156
2.162804842349026 0.1387202475031403 -0.08715089236569679
2.14652685802218 0.08972938114555815 -0.08630681675468264
2.1502297714143674 0.04175647527689222 -0.08630681675468264
2.153944537246142 -0.006369984269222469 -0.08630681675468264
2.1445983842637606 -0.05420833623125487 -0.08575816660130596
2.168480596610943 -0.10373365871923226 -0.0866022422123201
2.15914436574231 -0.1517005561206184 -0.0860535920589434
2.1629378614275923 -0.2008469962742529 -0.0860535920589434
2.172844915209474 -0.2512328684053161 -0.08630681675468264
2.204132693940625 -0.3057431266754232 -0.08744631782333423
2.229464534367112 -0.3610528901476132 -0.08833260425842156
2.2467740271386147 -0.4163831812626136 -0.08888125441179826
2.280526293048908 -0.4768358901449321 -0.09010515700424625
2.269441515058787 -0.5281356618892938 -0.08947210532707314
2.2891160980483782 -0.5881206713497092 -0.09010515700424625
2.3007099022939927 -0.6473630114401566 -0.09040059252405869
2.3196191008861446 -0.7104251660816996 -0.09099144343933359
2.3097988857175373 -0.7651148732956182 -0.09040059252405869
2.359962168366965 -0.8432685272815296 -0.0922575568558548
2.357601737445968 -0.9036455870487541 -0.09196213139821734
2.3625928758569983 -0.968308026541675 -0.09196213139821734
2.390600478192742 -1.045290443394443 -0.09289061859520288
2.4042512281888246 -1.118191493643231 -0.09322824481473854
2.4504977094297975 -1.2105695432776111 -0.0948741952748686
2.4237543977513525 -1.2669132675301642 -0.0935658710342742
2.3129866364522202 -1.274197269116312 -0.08888125441179826
2.269215887005969 -1.317847080783992 -0.08689766766995755
2.24016534806439 -1.3702857272571627 -0.08550494190556672
2.2524351431442926 -1.4512819739438743 -0.08575816660130596
2.360550671221068 -1.6045451483840114 -0.0898097315466088
2.4130667795477767 -1.7261737593683157 -0.0916244951165067
2.4287544751773655 -1.8254612570258437 -0.09196213139821734
2.0999680719451024 0.27711098252988237 -0.17021576544100187
2.0667898927695294 0.22617249583706728 -0.1670871150579778
2.0643762020943193 0.17948003286916317 -0.16657977206837163
2.079916205950641 0.13407967251132968 -0.1675944681277133
2.121515115934691 0.08891685383234842 -0.17080767063560706
2.1642615823959988 0.04188306742543038 -0.1741054454286292
2.18808362200201 -0.006862690178816241 -0.17579660888757515
2.191876434810993 -0.05600028336334015 -0.17579660888757515
2.1886356111795995 -0.10497146020810283 -0.17520470369296992
2.185393935899615 -0.15393160356291805 -0.17461279849836472
2.169006654462747 -0.20150647677794922 -0.17292163503941882
2.1535914897804456 -0.24868251533605235 -0.17131502370534257
2.197026108087864 -0.3046316179387291 -0.17461279849836472
2.2223445310461396 -0.35976755208483185 -0.176388534242439
2.2335258688404713 -0.4136693020795562 -0.17698043943704422
2.3019685959823444 -0.4817549487142119 -0.18230760634874973
2.2489805222644095 -0.5229337750801043 -0.17757234463164942
2.2532385163612965 -0.5780980007490804 -0.17757234463164942
2.270922773745691 -0.6382835357202036 -0.17867160289599013
2.2980048762590037 -0.7032787847653486 -0.18053187060467543
2.3170185424693237 -0.7676912663061105 -0.1817157011541445
2.307249883931337 -0.8230520108299129 -0.18053187060467543
2.357601737445968 -0.9036455870487541 -0.1842524463425634
2.369859540153692 -0.9714934234061886 -0.1848443515371686
2.3989239554816995 -1.0491742833960636 -0.18678919153098228
2.4042512281888246 -1.118191493643231 -0.18678919153098228
2.3700064108550105 -1.168307345769066 -0.1835759688628298
2.330491873516895 -1.215119925577002 -0.17993996541007024
2.27726851183937 -1.2532504907652902 -0.17520470369296992
2.261843169021771 -1.3132877107721712 -0.17351354023402402
2.2264364681980795 -1.3613438842801462 -0.17021576544100187
2.2323143391345535 -1.4374943418465005 -0.17021576544100187
2.2522247288567177 -1.5265204209460213 -0.17131502370534257
2.358743035002041 -1.6850769555218728 -0.17926350809059532
2.4287544751773655 -1.8254612570258437 -0.1842524463425634
2.057258847732121 0.27168855483246046 -0.2506156727670804
2.0906709853679706 0.22863695325351446 -0.25443213600209386
2.082319458178786 0.18090737024857406 -0.25290554767502105
2.0978919544049948 0.13508605664745452 -0.25443213600209386
2.121515115934691 0.08891685383234842 -0.25697645493566085
2.1502297714143674 0.04175647527689222 -0.2601568687679567
2.071608886310417 -0.005181690497541629 -0.2497251490080623
2.1254858992069963 -0.053483928976977874 -0.25608594634197984
2.2168527757357546 -0.10670439114597613 -0.26715376100060306
2.199528245766806 -0.15513293050613625 -0.2644822048888858
2.1760868326202667 -0.20227586196385586 -0.26104737736163774
2.1799382316100697 -0.2521724654302821 -0.26104737736163774
2.1838280937756154 -0.30256737661117533 -0.26104737736163774
2.200984278576297 -0.3559114941179434 -0.26270118770152373
2.1846095359774265 -0.40364881361006677 -0.2601568687679567
2.1957787925288343 -0.45739404567736647 -0.26104737736163774
2.2489805222644095 -0.5229337750801043 -0.26715376100060306
2.2962918587834897 -0.5901252737441579 -0.27249684289336346
2.2863297487568954 -0.6429797673594942 -0.2707157953753272
2.3278529276267483 -0.7131475429698916 -0.2752955755218826
2.3397088220031907 -0.775788476409999 -0.27618608411556367
2.307249883931337 -0.8230520108299129 -0.2716063039690082
2.357601737445968 -0.9036455870487541 -0.27720382988739495
2.393735828915195 -0.9819597738872088 -0.2810203082877455
2.3593868182037845 -1.0307257540160104 -0.27618608411556367
2.3886082236151434 -1.1104404910354744 -0.27911205392223315
2.3626890653897363 -1.1644653516061276 -0.2752955755218826
2.3147736081069175 -1.206390787029959 -0.26880757134048905
2.2426010897358704 -1.232919893493616 -0.25939356702175176
2.2407781887485276 -1.300260894940714 -0.25850305842807075
2.1936985056323803 -1.3400211162538713 -0.2521422610941532
2.2058396966804645 -1.4193527889597561 -0.25290554767502105
2.2384184688884634 -1.516576083999126 -0.25608594634197984
2.2181399763082523 -1.5787084352427945 -0.25290554767502105
2.0632182165415034 0.2724451653091575 -0.33658081601952955
2.110571935406345 0.23069067184759662 -0.3440755150089157
2.1261810545171875 0.1843964413335389 -0.34611954228369796
2.0859080824189515 0.13441513166835117 -0.33862482298886715
2.1085092867435917 0.08849434861812765 -0.3418612062757539
2.1442160698618515 0.04170222088298704 -0.34731187799035784
2.153944537246142 -0.006369984269222469 -0.34833389162774897
2.1445983842637606 -0.05420833623125487 -0.34611954228369796
2.1160774626257455 -0.10051536894586588 -0.3406688299582048
2.15914436574231 -0.1517005561206184 -0.34731187799035784
2.169006654462747 -0.20150647677794922 -0.34833389162774897
2.172844915209474 -0.2512328684053161 -0.34833389162774897
2.15134063669163 -0.2974861613652079 -0.3440755150089157
2.1348696155859455 -0.34397614956562444 -0.3406688299582048
2.1591322337211314 -0.39842979986658617 -0.3440755150089157
2.1825050670971455 -0.4543489327977608 -0.34731187799035784
2.2131736629171113 -0.5138304421583314 -0.35174057667845987
2.259389028764138 -0.5798161923589948 -0.3587243094600397
2.250379977137784 -0.6320218437709785 -0.3565099601159887
2.2475722580397504 -0.6866040843403255 -0.35531762440932874
2.244821483149228 -0.7419271606975765 -0.35412524809177964
2.307249883931337 -0.8230520108299129 -0.36366397435594805
2.333778131651715 -0.8938617680668792 -0.36724102208681697
2.3169163467032243 -0.9482853769726707 -0.36366397435594805
2.367710543554889 -1.0346097097665732 -0.3711587139562234
2.364622449026914 -1.0985557025022525 -0.36979601556940556
2.3700064108550105 -1.168307345769066 -0.36979601556940556
2.2718098329891765 -1.1825308549239204 -0.35293291238511976
2.2152873328706355 -1.2169018293541587 -0.3428831793022558
2.220766382154635 -1.2878853733132618 -0.3428831793022558
2.200034824567854 -1.3441480639382442 -0.33862482298886715
2.199485858236115 -1.4149988681703864 -0.3376028296569207
2.211868017642797 -1.4974523941739217 -0.33862482298886715
2.2181399763082523 -1.5787084352427945 -0.33862482298886715
2.0810965597767406 0.27471502680463517 -0.4268699253391898
2.0906709853679706 0.22863695325351446 -0.4281543719179908
2.076338412428708 0.1804315942730841 -0.4243010066615987
2.0978919544049948 0.13508605664745452 -0.4281543719179908
2.1145118853973104 0.08868934804437002 -0.43093737778537666
2.112143393184031 0.04141286770859427 -0.429652956726565
2.1087602714146794 -0.0057178708644543 -0.4281543719179908
2.119450592194329 -0.05325517692465288 -0.429652956726565
2.168480596610943 -0.10373365871923226 -0.4392863953875344
2.165201995887367 -0.1522154163701591 -0.4377878616189387
2.1234909478495685 -0.1965603992054441 -0.4281543719179908
2.1667648606952574 -0.2504274903831672 -0.4365033895201485
2.15134063669163 -0.2974861613652079 -0.4324359115539724
2.1745384133801564 -0.3511373562970157 -0.4365033895201485
2.178494963998351 -0.40239624632985505 -0.4365033895201485
2.1825050670971455 -0.4543489327977608 -0.4365033895201485
2.227496309090321 -0.5174717505224877 -0.44506646879211176
2.231711722951352 -0.5720843301143802 -0.44506646879211176
2.1815613881007874 -0.6110451085603444 -0.4337203836527626
2.172437423427732 -0.6617620098481315 -0.43093737778537666
2.2871083602825544 -0.7570175754399241 -0.453843660773859
2.284511473693325 -0.8143312458396997 -0.4523451270052633
2.304775363010153 -0.8819509834101463 -0.4555562562122603
2.338716587095495 -0.9578416760606547 -0.4615504423266217
2.3364971316280787 -1.0200451361370826 -0.46005190855802597
2.364622449026914 -1.0985557025022525 -0.46476157153361863
2.3626890653897363 -1.1644653516061276 -0.4632630377650229
2.322108831943217 -1.2104644035182 -0.453843660773859
2.2426010897358704 -1.232919893493616 -0.4365033895201485
2.207074119865589 -1.279417927493625 -0.4281543719179908
2.1810257418684658 -1.3317671388889862 -0.4217320879840076
2.179365054226376 -1.4012112360730122 -0.42023352869542263
2.172573375119718 -1.4691493514704086 -0.4176646100178315
2.2053579262374106 -1.569038604694303 -0.4230165345628085
2.244978962605049 -1.679531586809427 -0.429652956726565
2.0940088215392647 0.27635438708587834 -0.5190455455691264
2.0667898927695294 0.22617249583706728 -0.5110283649383733
2.0703572478443975 0.17995580884465312 -0.5110283649383733
2.0859080824189515 0.13441513166835117 -0.5141317668250769
2.1145118853973104 0.08868934804437002 -0.5205972002680505
2.1181568557751884 0.0414671199466386 -0.5205972002680505
2.1408913155345837 -0.00618159610584567 -0.5255109481824815
2.1717581052236854 -0.055237752282023544 -0.5324936101349692
2.1886356111795995 -0.10497146020810283 -0.5358556416912392
2.15914436574231 -0.1517005561206184 -0.5273212633805904
2.136639919042243 -0.1979892648950471 -0.5205972002680505
2.1596715442946617 -0.2494878933582012 -0.5255109481824815
2.1706300794633666 -0.3005031352836215 -0.5273212633805904
2.148092548184016 -0.3463632184760882 -0.5205972002680505
2.1988767086155625 -0.4065714374157581 -0.5324936101349692
2.2161998711255153 -0.46207882613106926 -0.5358556416912392
2.1998739932093385 -0.51044920953122 -0.5306832949368604
2.211210177873678 -0.5663570702642143 -0.5324936101349692
2.1949142303848723 -0.6151152157918662 -0.5273212633805904
2.1991977284201707 -0.6706098564360531 -0.5273212633805904
2.224193822172377 -0.7345660127385112 -0.5324936101349692
2.2772765025791646 -0.8115564483874094 -0.5446486805010728
2.312025993431524 -0.884928654219503 -0.5521485401334563
2.3314499227988015 -0.9546562791961413 -0.555769232188911
2.390600478192742 -1.045290443394443 -0.5692173584139908
2.3489796930903557 -1.0908048230925032 -0.55757954738702
2.347009110600832 -1.1562325443592918 -0.555769232188911
2.3378270973531943 -1.2191935420652427 -0.5521485401334563
2.2919760927813377 -1.2618757039143667 -0.539476333746694
2.2344586444436803 -1.296352819132898 -0.5239592318243205
2.1810257418684658 -1.3317671388889862 -0.5094766794098308
2.1486545194760542 -1.3801670693266883 -0.5001664429201015
2.154519093593172 -1.4561452606270588 -0.5001664429201015
2.1787286023487265 -1.5488930843593551 -0.5045629314953998
2.178734108559348 -1.6269288783793812 -0.5030112151372387
2.0940088215392647 0.27635438708587834 -0.6104110457213069
2.0667898927695294 0.22617249583706728 -0.6009826330235567
2.082319458178786 0.18090737024857406 -0.6046323142646877
2.079916205950641 0.13407967251132968 -0.6028074917723383
2.10150581767656 0.08826683508131451 -0.6082819955058186
2.087086383035668 0.041186808452609705 -0.6028074917723383
2.084662108021975 -0.005370078660918428 -0.6009826330235567
2.1445983842637606 -0.05420833623125487 -0.6180145271574109
2.142279029618344 -0.10212451383254906 -0.6161896684086293
2.107654870569696 -0.14732427468737005 -0.6046323142646877
2.130571367157571 -0.1973298105965682 -0.6104110457213069
2.134338305949387 -0.24613219426941196 -0.6104110457213069
2.1249447290920958 -0.2933576976390637 -0.6064571730134692
2.148092548184016 -0.3463632184760882 -0.612235831957224
2.145884318392549 -0.3957159704557326 -0.6104110457213069
2.1957787925288343 -0.45739404567736647 -0.6240973413114399
2.1927126701227335 -0.5086285553491418 -0.6219683636088162
2.1445801563712377 -0.5477434757511751 -0.6064571730134692
2.175398500140525 -0.6091665860465256 -0.6143648096598476
2.21257788091639 -0.6750337797300138 -0.6240973413114399
2.224193822172377 -0.7345660127385112 -0.6262263190140636
2.2772765025791646 -0.8115564483874094 -0.6405209975376099
2.246770072683105 -0.8581295155159862 -0.6301801554654689
2.3096496824065307 -0.9450999801081573 -0.6472120495993231
2.3292140269847046 -1.0166467471984293 -0.651470077517435
2.3489796930903557 -1.0908048230925032 -0.6557280329226824
2.3543264560661057 -1.1600745385222302 -0.6557280329226824
2.3378270973531943 -1.2191935420652427 -0.6493410273019468
2.299329758019603 -1.266188237046583 -0.6365671610862046
2.2407781887485276 -1.300260894940714 -0.6180145271574109
2.167296862002155 -1.3228252959119695 -0.5952039740798021
2.166657251096624 -1.3925033079885247 -0.5933791153310204
2.2522247288567177 -1.5265204209460213 -0.6161896684086293
2.2181399763082523 -1.5787084352427945 -0.6046323142646877
2.237499501507996 -1.6735924098428552 -0.6082819955058186
2.087055928586123 0.2754716372813323 -0.7016965524193144
2.08470077152787 0.2280208450199669 -0.6995914898642507
2.082319458178786 0.18090737024857406 -0.6974863854848131
2.1178651140648745 0.13620426716764694 -0.7087135112516078
2.1085092867435917 0.08849434861812765 -0.7041525632944898
2.0930999651075046 0.041241061768584455 -0.6974863854848131
2.1288421141410074 -0.006007698276570071 -0.7087135112516078
2.138562837421687 -0.05397957508884242 -0.7108186156310452
2.136232477194402 -0.10175317043473642 -0.7087135112516078
2.113712500714753 -0.14783913493691075 -0.6995914898642507
2.117422275389655 -0.19590093180435653 -0.6995914898642507
2.127244747950821 -0.2451925652418226 -0.7016965524193144
2.106670564738595 -0.29049951879544783 -0.6932762185503119
2.148092548184016 -0.3463632184760882 -0.7062575840251798
2.1652468057002072 -0.3996823671467978 -0.7108186156310452
2.175357713932153 -0.45270926522366356 -0.7129237200104828
2.1599749840860194 -0.5003055116498855 -0.7062575840251798
2.190708632796004 -0.5606298104140482 -0.7153796472369106
2.1877242760610502 -0.6129236310741631 -0.7129237200104828
2.21257788091639 -0.6750337797300138 -0.7199406788427761
2.224193822172377 -0.7345660127385112 -0.722396606069204
2.228698452148382 -0.7929255169786087 -0.722396606069204
2.2540207031044766 -0.861107186325343 -0.7294135649014973
2.280583025219756 -0.9323583926501032 -0.7367814302295286
2.3063240923468515 -1.0059660135705593 -0.7437983890618219
2.334379721246335 -1.0835706361239352 -0.7515170772368436
2.3166942156529924 -1.1403156179284675 -0.7437983890618219
2.3074383842706183 -1.2023171705417184 -0.7388865346089661
2.299329758019603 -1.266188237046583 -0.7343255030031007
2.2829081492950145 -1.3263145266036283 -0.7269576376750694
2.2264364681980795 -1.3613438842801462 -0.7062575840251798
2.3763366970633233 -1.5361845971641825 -0.7539730044632715
2.382853227510981 -1.6206091755017074 -0.7539730044632715
2.315070766054514 -1.6520381676865725 -0.7294135649014973
2.2588687353075048 -1.6905609667386639 -0.7087135112516078
2.050306073182524 0.2708058200606075 -0.7831576123360143
2.0906709853679706 0.22863695325351446 -0.7979190919474387
2.0703572478443975 0.17995580884465312 -0.7883440909994024
2.054949756375791 0.1326819093610892 -0.7807638858788473
2.0644886397519833 0.08706430116678525 -0.7831576123360143
2.0930999651075046 0.041241061768584455 -0.7931315914734206
2.0967111897183273 -0.005543974762686352 -0.7931315914734206
2.082231586526047 -0.05184449078818218 -0.7859503645422353
2.110031030335166 -0.10014403292593205 -0.7955253654902716
2.107654870569696 -0.14732427468737005 -0.7931315914734206
2.136639919042243 -0.1979892648950471 -0.8031055706108268
2.1090048260061423 -0.24277646317799928 -0.7907378650162535
2.138142864429308 -0.295421957895581 -0.8007118917133437
2.148092548184016 -0.3463632184760882 -0.8031055706108268
2.126521466630549 -0.3917494991063617 -0.7931315914734206
2.149831487405531 -0.4468533175800291 -0.8007118917133437
2.173274653793792 -0.5036867442769969 -0.8082920492742147
2.171232091652905 -0.5551888930740938 -0.8058982752573637
2.1620459027458923 -0.6050965534602599 -0.8007118917133437
2.146706408125448 -0.6532544806547836 -0.7931315914734206
2.1901581569704605 -0.722420109830873 -0.8082920492742147
2.2348999263670115 -0.7953039417975577 -0.8238514852643788
2.246770072683105 -0.8581295155159862 -0.8266441899109157
2.223487487528634 -0.9073301349360696 -0.8158723019544538
2.2855151510623113 -0.9962562978175655 -0.8378151036164315
2.2968367589066228 -1.064968353063327 -0.8402088776332826
2.302059524722445 -1.132631629602591 -0.8402088776332826
2.3147736081069175 -1.206390787029959 -0.8430015822798195
2.306683423257868 -1.2705007701787996 -0.8378151036164315
2.3566358313657387 -1.3719085373056228 -0.8545714266150211
2.3859025719747944 -1.465206753939828 -0.8633484711843177
2.383749571702258 -1.5412642146713216 -0.8601568359080949
2.375419126482702 -1.6152545605884396 -0.8545714266150211
2.3896331269000934 -1.7084458167472634 -0.857364131261558
2.396700624478103 -1.8000084216821302 -0.857364131261558
2.050306073182524 0.2708058200606075 -0.880834875497034
2.0727602252286497 0.22678861631174327 -0.8893605551567366
2.076338412428708 0.1804315942730841 -0.8893605551567366
2.060941632844102 0.13301736851811063 -0.880834875497034
2.058485921833439 0.08686929786612553 -0.8781425978345804
2.125172761266004 0.04153041602090766 -0.9064118074932621
2.084662108021975 -0.005370078660918428 -0.8866682240028432
2.1003379872228614 -0.05253076512533213 -0.8920528328191901
2.110031030335166 -0.10014403292593205 -0.8947451639730837
2.113712500714753 -0.14783913493691075 -0.8947451639730837
2.1113534823545 -0.19524145130066015 -0.8920528328191901
2.096844837776694 -0.24116572313501305 -0.8839759463403897
2.1188533006326074 -0.29240496504820396 -0.8920528328191901
2.1348696155859455 -0.34397614956562444 -0.8974374416355372
2.126521466630549 -0.3917494991063617 -0.8920528328191901
2.149831487405531 -0.4468533175800291 -0.9005785659703328
2.173274653793792 -0.5036867442769969 -0.9091041386471557
2.1640565753154886 -0.5531843589539681 -0.9032707901413464
2.1815613881007874 -0.6110451085603444 -0.9091041386471557
2.21257788091639 -0.6750337797300138 -0.920770835658774
2.1767501527453956 -0.7176353548822999 -0.9032707901413464
2.1749529172399447 -0.7723127224031004 -0.9005785659703328
2.199122861094599 -0.8385618775522364 -0.9091041386471557
2.1705444178292614 -0.8841221427497739 -0.8947451639730837
2.2147646018575866 -0.9632431948080219 -0.9117964698010491
2.247822177000504 -1.0406819603576947 -0.9239118530106898
2.2529283849538544 -1.1068351774458294 -0.9239118530106898
2.243516755381358 -1.166818294541519 -0.9176298183068583
2.2562579681684873 -1.2409289255633449 -0.920770835658774
2.3123992723461786 -1.3445521619428051 -0.942309377907042
2.3700617116896265 -1.4548893437308263 -0.9642966063533321
2.368923822424389 -1.531104979657044 -0.9611555890014163
2.367984772249347 -1.6098997632972794 -0.9580144646666208
2.3896331269000934 -1.7084458167472634 -0.9642966063533321
2.3817419570253584 -1.788130270030141 -0.9580144646666208
2.032427729947287 0.2685359585651299 -0.9732759226011414
2.0190275889536284 0.22124356876304446 -0.964769161030902
2.045435926800158 0.17797338531442572 -0.9762783371093198
2.079916205950641 0.13407967251132968 -0.9917907126479087
2.058485921833439 0.08686929786612553 -0.9792807516174982
2.087086383035668 0.041186808452609705 -0.9917907126479087
2.0906867087187635 -0.0054570275755562 -0.9917907126479087
2.1003379872228614 -0.05253076512533213 -0.9947930675038876
2.103984477911224 -0.09977268952811934 -0.9947930675038876
2.082414945554386 -0.14517904069642132 -0.9822831064734769
2.0992160168594314 -0.19392250339587627 -0.9887882981397303
2.1090048260061423 -0.24277646317799928 -0.9917907126479087
2.10057925730407 -0.2895468051335516 -0.9857859432837516
2.1226638782852123 -0.3417727097595318 -0.9947930675038876
2.126521466630549 -0.3917494991063617 -0.9947930675038876
2.1243050174404496 -0.4409973140894065 -0.9917907126479087
2.1405370897142153 -0.4953637315834317 -0.997795482012066
2.1640565753154886 -0.5531843589539681 -1.0073030285342983
2.148692938017081 -0.60102640890611 -0.997795482012066
2.1796420831733396 -0.6641441099088491 -1.0108058056923732
2.15715392399761 -0.710642281871549 -0.997795482012066
2.149113523469896 -0.7624026504939629 -0.9917907126479087
2.1929079644602587 -0.8360095593101289 -1.0108058056923732
2.209992183119863 -0.9014143669035609 -1.01681063470873
2.208521869859795 -0.9603302569323354 -1.0138082202005516
2.2134078155755277 -1.0236298778186377 -1.0138082202005516
2.2592004665607712 -1.1101283526878083 -1.033323795199312
2.2864805304990994 -1.1906782266475577 -1.0438322459779363
2.2426010897358704 -1.232919893493616 -1.0203134118668051
2.2829081492950145 -1.3263145266036283 -1.036826572357387
2.3109219796007348 -1.4163706733665105 -1.0473350231360115
2.3382131614330146 -1.510060726404972 -1.0573429919603399
2.344620527076206 -1.5930710256778349 -1.0573429919603399
2.358743035002041 -1.6850769555218728 -1.060845769118415
2.3657151590464074 -1.7754039534988615 -1.060845769118415
