x y z 
1.4688932430634893 1.7045119235052482 0.8581841618169643
1.5394837279852966 1.7039610015680307 0.8581841618169643
-0.6788084329677544 0.8542472277055306 0.3805134975059068
-0.658723101111434 0.8700909322516666 0.3876929848429428
-0.6603967805187206 0.9161053991678869 0.4083340477122862
-0.664024753980542 0.9681353430202929 0.43166744173552307
-0.6533069704715346 1.0020527112547075 0.44692386904279957
-0.6438318701181898 1.0399799079077627 0.463975174870765
-0.6293229745020166 1.071867712935912 0.47833420303627694
-0.6204411883959968 1.1157996455742927 0.49807778652669593
-0.6203225452068934 1.1798006792035236 0.5267957893662798
-0.6232168427859939 1.2558255574315957 0.5608984010222108
-0.6210962740034186 1.3288113041098832 0.5936549005926348
-0.6098859250808252 1.3887255832269187 0.6205779981658098
-0.6155460398299986 1.4957731286384035 0.6685909517892303
-0.599892452078316 1.560652878096446 0.6977576408268366
-0.5750283969740323 1.60746030901441 0.7188474433856422
-0.5357479214161276 1.6161539632007365 0.7228858866250424
-0.4963634205118949 1.6238468475504366 0.7264756436664204
-0.4583078238497096 1.635550173622951 0.7318602524827674
-0.4140593279097884 1.6232045070113754 0.7264756436664204
-0.3785426065248447 1.643927984716701 0.7358987492136077
-0.334594894299712 1.6265843988484214 0.7282704954413894
-0.29879936985516425 1.6473057006412022 0.7376936009885766
-0.25902411341267095 1.6469952754988209 0.7376936009885766
-0.21781680436586048 1.6336732665796831 0.7318602524827674
-0.1780409392449851 1.6253625768380848 0.7282704954413894
-0.14058453153512843 1.6370706984809453 0.7336551577491763
-0.10122690782226589 1.624763083364655 0.7282704954413894
-0.06451826712981269 1.6624778556446562 0.7453218547607948
-0.025576811792094745 1.6661740082031913 0.7471167065357639
0.013376721463233338 1.6528695888292517 0.7412833580299546
0.05228307914199573 1.657566092492664 0.7435269494943859
0.09234281559532044 1.678254114333576 0.7529500550415731
0.12815392143315896 1.6309731454133696 0.7318602524827674
0.16758207537488848 1.6396657662598126 0.7358987492136077
0.2064770378073786 1.6393622113532973 0.7358987492136077
0.25126678183610257 1.6770137956213782 0.7529500550415731
0.28860152531257144 1.659721939739876 0.7453218547607948
0.3246373372853262 1.6384400318107897 0.7358987492136077
0.36356048975284727 1.6331361093918615 0.7336551577491763
0.4070825307907589 1.6457968499015307 0.7394885062549856
0.4517073227030324 1.6584489840154708 0.7453218547607948
0.48859323514612096 1.6411605118132961 0.7376936009885766
0.5293741647260476 1.6368421675983773 0.7358987492136077
0.5778908124968061 1.6534639981240387 0.7435269494943859
0.6264915219761389 1.6660851022739447 0.7493602980001951
0.6640970372534369 1.6477910559737405 0.7412833580299546
0.7114224831851094 1.6524218530420638 0.7435269494943859
0.7635842658651424 1.6650151648719642 0.7493602980001951
0.8131021535534059 1.6686287738893144 0.7511551497751642
0.8665042043966744 1.6772123357547912 0.7551936465060043
0.9047402336816786 1.6549132983034933 0.7453218547607948
0.9578602266668452 1.6584987947667162 0.7471167065357639
1.0514131686525023 1.7257706927174616 0.7776295611503168
1.1259405906901907 1.7541899720885947 0.7906424237388819
1.1556955020409867 1.71095645814023 0.7713475264464853
1.2119019829078836 1.7065176063256693 0.7695526211800763
1.2861122795296702 1.7239389885016474 0.7776295611503168
1.3466486202773869 1.7194664636007178 0.7758347093753477
1.382274498083374 1.6821872352965128 0.7592320897454046
1.4808803059323958 1.7184188552668336 0.7758347093753477
1.5188440817161024 1.6811213808876182 0.7592320897454046
-0.6772063008761694 0.8522346291342896 0.33751978217164486
-0.658723101111434 0.8700909322516666 0.3447010566625141
-0.6502293834624072 0.9020256230017815 0.3574677642262992
-0.6426112556140539 0.9369672596187756 0.3714313587985099
-0.6388657929667675 0.9799393206112502 0.3885866124267853
-0.6376005805050142 1.0299309809328259 0.4085345944814397
-0.6269596811098979 1.0678490791320707 0.4236950522822339
-0.618203648572777 1.1117821124244236 0.4412492840998792
-0.6134481895739126 1.1667466210886068 0.4631920382021728
-0.6242148109509126 1.2578335004247894 0.4994973888458889
-0.6262643821024624 1.3398520106932652 0.5322120784643284
-0.6151820144633253 1.4007673658234485 0.556548606583473
-0.605623387216768 1.4716949079608659 0.5848747263575802
-0.5941010440224646 1.545607236663877 0.6143977331401129
-0.6008940927100052 1.6796642774996446 0.6678582898524205
-0.5523907762548226 1.666285446258887 0.6626718587487165
-0.5040355489506154 1.6489074620329764 0.6558895148875331
-0.47040349826731104 1.6786458664325066 0.6678582898524205
-0.42148476178760186 1.6522633857023246 0.6574853800853285
-0.3785426065248447 1.643927984716701 0.6542936972494217
-0.338104672233212 1.6436123877191497 0.6542936972494217
-0.2957045966892012 1.6302810698792698 0.6491072185860337
-0.2563406405778428 1.6299738547215692 0.6491072185860337
-0.10047488769772393 1.6127568840728588 0.6427238529142201
-0.06436172654702976 1.6584764443961497 0.6610759935509211
-0.025310724894062168 1.6491714538630349 0.6574853800853285
0.013314287408361661 1.6448698162457047 0.6558895148875331
0.05228307914199573 1.657566092492664 0.6610759935509211
0.09261653016090875 1.6832521256379591 0.6714489508776971
0.12979774080960219 1.6519609834615145 0.6590811977234399
0.16758207537488848 1.6396657662598126 0.6542936972494217
0.20911475537155844 1.6603422925441889 0.6626718587487165
0.2473809923691132 1.6510433074772053 0.6590811977234399
0.2915503417176817 1.6766994034356246 0.6694541550502159
0.3246373372853262 1.6384400318107897 0.6542936972494217
0.366447337895932 1.6461139863996526 0.6574853800853285
0.41127680037767783 1.6627645934844288 0.6642676763868278
0.46257361389280804 1.698365358308221 0.6786302253685664
0.49631272899699386 1.6671010798931967 0.6662624722143091
0.5306641237673388 1.6408321704584332 0.6558895148875331
0.5806785389679247 1.6614425012209244 0.6642676763868278
0.6313646375969005 1.6790474774994795 0.6714489508776971
0.6624902470577508 1.6438035258156862 0.6574853800853285
0.7225778320860436 1.6783356060643504 0.6714489508776971
0.7612995371569465 1.6600328484846576 0.6642676763868278
0.8067915521337756 1.6556777367040232 0.6626718587487165
0.8731936105106018 1.6901605357798277 0.6766354295410851
0.9237943766408268 1.6897656231774842 0.6766354295410851
0.9756852569208974 1.6893606419067155 0.6766354295410851
1.034433359175664 1.6979023614148099 0.6802260430066778
1.09847486603519 1.7114030353761287 0.6858114998594357
1.198033065308661 1.7736279179202947 0.710945936797636
1.2316802314112616 1.7343640972704968 0.695386500807472
1.2623730813547476 1.692123340386292 0.6786302253685664
1.3645559566313716 1.7423274085357126 0.6989771618327486
1.4851738181997893 1.8073880437386185 0.7253084857793746
1.52197861764086 1.7660995442476637 0.7089511409701548
1.6130685631168182 1.7853892247223733 0.7169303242800797
-0.6667926571398872 0.839153008327156 0.29225663650050876
-0.6427007282955856 0.8489652783890008 0.29576511591665544
-0.6436931965485315 0.8929743340418353 0.31120242953013816
-0.6446835017585656 0.9399834851581622 0.32769229533333966
-0.6388657929667675 0.9799393206112502 0.3417262339101132
-0.6326155339579073 1.0218918153943448 0.3564618600052414
-0.6216423942308993 1.0588073626579655 0.36944326730448307
-0.6131690839434197 1.1027424832371784 0.3848805600057789
-0.617678567120163 1.174779896828932 0.41014164526153396
-0.6147345297494945 1.2387588797294051 0.4325959386194969
-0.6220359147466065 1.3308186726750353 0.46487398270754526
-0.6098859250808252 1.3887255832269187 0.4852231716860707
-0.6068637249542029 1.4747047004952547 0.5153961532190554
-0.5971898041907893 1.553631602675673 0.5431131657012384
-0.6023311019775798 1.6836756821387497 0.5887234399355188
-0.5537221855957096 1.6702959075326915 0.5841624083296534
-0.5104801514725785 1.669958425997684 0.5841624083296534
-0.46927833328877366 1.6746370147884384 0.5859166480377267
-0.42148476178760186 1.6522633857023246 0.5781980016870788
-0.3785426065248447 1.643927984716701 0.5753912097892867
-0.3416144255551716 1.6606402571848777 0.5813556164318613
-0.2882407128463815 1.589221560939648 0.5564453958474704
-0.2544464255660459 1.6179587411940846 0.56662001124892
-0.17716097496801667 1.6173555685397338 0.56662001124892
-0.10122690782226589 1.624763083364655 0.5694267613223384
-0.06467480304740171 1.6664791476438332 0.5841624083296534
-0.025921159652247998 1.6881773208332456 0.5918810546803013
0.013314287408361661 1.6448698162457047 0.5767945848259959
0.052533165164309864 1.6655644005504249 0.5841624083296534
0.09048155263379788 1.644267565966579 0.5767945848259959
0.13081534283638385 1.6649534489608377 0.5841624083296534
0.16758207537488848 1.6396657662598126 0.5753912097892867
0.20748188330674872 1.6473546289067826 0.5781980016870788
0.24812825820382478 1.6560376229607867 0.5813556164318613
0.28860152531257144 1.659721939739876 0.5827590332929442
0.3287880849703722 1.6594083045903043 0.5827590332929442
0.3673355866450889 1.6501071243991339 0.579601376723788
0.40930301780395345 1.6547797379797187 0.5813556164318613
0.4612153274940861 1.6933758115216273 0.5950387112494575
0.5013600740255013 1.6840621656669663 0.5918810546803013
0.5306641237673388 1.6408321704584332 0.5767945848259959
0.5719669197083523 1.636509753348606 0.5753912097892867
0.6347383089648777 1.6880213655749132 0.5936352943883746
0.6677123870237743 1.6567631770881466 0.5827590332929442
0.7187163415525242 1.669365405950292 0.5873200230744359
0.7777496056448482 1.6959055739883826 0.5967929509575309
0.8131021535534059 1.6686287738893144 0.5873200230744359
0.8598147982827469 1.6642641357297547 0.5859166480377267
0.9363156835650269 1.7126686032645346 0.6031082222714697
0.9785602573782982 1.6943383515307182 0.5967929509575309
1.0235177622054743 1.6799869971024817 0.5918810546803013
1.0812288945503818 1.6845367393022284 0.5936352943883746
1.2013931881059106 1.7786018414173206 0.6269658906661417
1.2556967060958635 1.7681777357591233 0.6234574112499951
1.3002074920090856 1.7428296147583493 0.6146862127096284
1.3645559566313716 1.7423274085357126 0.6146862127096284
1.4933404200903775 1.81732460267574 0.6413506730020926
1.5570834489492753 1.806826826555864 0.637842193585946
1.6130685631168182 1.7853892247223733 0.6304743700822885
-0.7621178693367048 0.9589005540371762 0.2895422365319532
-0.7220497218562215 0.9535876955290378 0.28802153299344596
-0.6901727383166611 0.9573390422138307 0.289238099449895
-0.6591894306319573 0.9610973635728131 0.290454665906344
-0.6362401207726748 0.975918698684093 0.29501677652186575
-0.6189066745240712 0.9997841401116863 0.30231615713234383
-0.6169158778771011 1.0507702148128757 0.3178273658559069
-0.6109315441201998 1.098724950087309 0.332426127076863
-0.616620988492953 1.1727716078200743 0.3549325612006297
-0.6077491094796146 1.2247039968398683 0.37074790700625104
-0.5971351270099228 1.2776227476233386 0.3868673717657144
-0.6019418436186279 1.3706630289556496 0.4151524648332358
-0.605623387216768 1.4716949079608659 0.4458707270700875
-0.5941010440224646 1.545607236663877 0.4683771611938543
-0.5796986021490456 1.6204971648839879 0.4911877505278954
-0.5493950457184249 1.6572617291089284 0.5024409494615626
-0.5064906373677249 1.6569268825670762 0.5024409494615626
-0.4715286967788095 1.682654837551202 0.5103486223643733
-0.4194363651825697 1.6442471391858164 0.4987912682204317
-0.36976028348412204 1.6058582983913339 0.4872339140764901
-0.34244026579133524 1.6646468919682844 0.505178237584735
-0.2935200522015546 1.6182636904815697 0.4911877505278954
-0.2550778242975146 1.6219637392499862 0.4924042988561283
-0.13989428604192808 1.6290650516258844 0.49483743176902634
-0.10172825706218408 1.6327672559829272 0.49605398009725926
-0.06451826712981269 1.6624778556446562 0.505178237584735
-0.025921159652247998 1.6881773208332456 0.5130858742311134
0.013314287408361661 1.6448698162457047 0.5000078165486646
0.05268946846243562 1.6705633281885457 0.5079154894514752
0.09141218737749417 1.6612608997310723 0.505178237584735
0.13050223882722645 1.6609558222564738 0.505178237584735
0.16758207537488848 1.6396657662598126 0.4987912682204317
0.2064770378073786 1.6393622113532973 0.4987912682204317
0.2500711529373195 1.669022867032873 0.5079154894514752
0.2870403726194658 1.6507337866880993 0.5024409494615626
0.3295786923569336 1.6634022046297219 0.5063947859129679
0.3742196071038128 1.6810543604172268 0.5118693259028805
0.410289923796612 1.6587722252237627 0.505178237584735
0.45415222526709104 1.667430120647268 0.5079154894514752
0.5013600740255013 1.6840621656669663 0.5130858742311134
0.5390489728685427 1.666767545787443 0.5079154894514752
0.5719669197083523 1.636509753348606 0.4987912682204317
0.6347383089648777 1.6880213655749132 0.5146065777696207
0.6693191772194604 1.6607507072462009 0.5063947859129679
0.7187163415525242 1.669365405950292 0.5091320377797081
0.7795773668225132 1.699891379583111 0.518560414221026
0.8111604389424966 1.6646438576417306 0.5079154894514752
0.8665042043966744 1.6772123357547912 0.5118693259028805
0.9314160078652515 1.703706505644511 0.5200811177595333
0.9682102420225717 1.6764185731487171 0.5118693259028805
1.021092106119261 1.6760058577658425 0.5118693259028805
1.107417159577047 1.7253336107622061 0.5270763612879531
1.1751841822203757 1.7398051669879042 0.5316384719034748
1.245101224848204 1.7532599854553665 0.5358964635651545
1.2861122795296702 1.7239389885016474 0.5270763612879531
1.3497628992894097 1.7234422285943882 0.5270763612879531
1.4761905171787126 1.7964577815265346 0.5495827954117198
1.52197861764086 1.7660995442476637 0.5404585741806763
1.586147313281053 1.7555984460204523 0.5374171671036618
-0.8998989373834632 1.131981152167284 0.2906861835604287
-0.8540437391255352 1.1276230867175419 0.28965169571178184
-0.8172652231642981 1.1333362742622974 0.2912034120699429
-0.7759274868168425 1.1310136196197818 0.2906861835604287
-0.7281384519384921 1.1166401665755235 0.2870655223345924
-0.6949285043724956 1.122381204936371 0.28861723869275346
-0.6671349644715243 1.1361646561714438 0.29223786908897126
-0.6383417737207229 1.1479403897066847 0.2953413018052934
-0.6102754536922822 1.1607217540620334 0.29870333336156335
-0.5927802412941776 1.1945861683904648 0.30749631051216
-0.5924368672863097 1.267585785147548 0.32637541316118496
-0.5931150981298648 1.3505935507928009 0.34784065835778083
-0.5890856821476326 1.4315646597625435 0.3687887058744811
-0.5802016462780134 1.5094976493968595 0.3889608643824823
-0.5854465107428792 1.6365424247989564 0.4218052909364827
-0.555386467111619 1.6753090438862468 0.4318913856052926
-0.5104801514725785 1.669958425997684 0.4305982989166979
-0.4678718602991214 1.6696258904960395 0.4305982989166979
-0.42378918889112177 1.6612815883764338 0.42852935404902265
-0.37553812396474007 1.6309041289438202 0.4207708339174544
-0.3416144255551716 1.6606402571848777 0.42852935404902265
-0.2942482264635823 1.62226944382004 0.4187018890497791
-0.2544464255660459 1.6179587411940846 0.41766743203075074
-0.21393531445558148 1.6046421657369239 0.41430540047448083
-0.17397105856970185 1.5883297458548102 0.4101675107391303
-0.13989428604192808 1.6290650516258844 0.4207708339174544
-0.10147758617756032 1.6287652293094033 0.4207708339174544
-0.06385297781707457 1.6454720665248304 0.4251673224927527
-0.025921159652247998 1.6881773208332456 0.4362878741805909
0.013478176686107558 1.665869204376808 0.4305982989166979
0.05240812401643509 1.6615653061134625 0.4295638418976695
0.09070052820179056 1.648266046507279 0.4262018103413996
0.13120672751350398 1.6699505419113396 0.4318913856052926
0.16758207537488848 1.6396657662598126 0.4241328654737243
0.20584901124193905 1.6343669652693766 0.4228397787851296
0.24872608156132775 1.660033146791976 0.4295638418976695
0.28860152531257144 1.659721939739876 0.4295638418976695
0.3295786923569336 1.6634022046297219 0.4305982989166979
0.3693341860390167 1.6590918634074439 0.4295638418976695
0.4125104108098065 1.6677551133019504 0.4318913856052926
0.4517073227030324 1.6584489840154708 0.4295638418976695
0.5028445893511586 1.6890507273025863 0.43758096086918563
0.5416289293953955 1.674747670420437 0.43396033047296784
0.574754646179471 1.644488256445492 0.4262018103413996
0.6328640371635207 1.6830358457854127 0.4362878741805909
0.671327688907416 1.6657351793633635 0.4318913856052926
0.7148549021659295 1.6603953246499785 0.4305982989166979
0.7736370612867582 1.686937333218555 0.43758096086918563
0.8111604389424966 1.6646438576417306 0.4318913856052926
0.8598147982827469 1.6642641357297547 0.4318913856052926
0.934138028287987 1.7086854091979382 0.443529165802645
0.9808602303260517 1.6983204717587368 0.4409429924254556
1.034433359175664 1.6979023614148099 0.4409429924254556
1.0959198706350108 1.7074227862524924 0.443529165802645
1.1684639366258764 1.7298573199938523 0.4494773707361044
1.2556967060958635 1.7681777357591233 0.4595634654049142
1.289821532008113 1.7289101872235069 0.4494773707361044
1.3536557944614087 1.7284119940807543 0.4494773707361044
1.4312742067804776 1.741806707372367 0.45309803196194065
1.5134164736211302 1.756166072310671 0.4569772920277248
1.5996079381989357 1.7704938353714128 0.46085655209350895
-1.047752568191926 1.2561388443332728 0.2669542719193384
-0.9848104580975495 1.2386470170910744 0.26331494281276263
-0.9761192117838772 1.2885807806959586 0.2740188174227059
-0.9886585496670658 1.3706811581256413 0.291573150346222
-0.9589782430733417 1.3974502914829001 0.29735322375079937
-0.9171865369092828 1.4061244660363266 0.2992799318989846
-0.8669122759749407 1.3997318769470062 0.29799545980019443
-0.8219281109442711 1.399380798988408 0.29799545980019443
-0.7865806875241793 1.4141053732862676 0.30120661452718067
-0.74564721998525 1.417785979227974 0.30206291224638127
-0.6970630965867431 1.4044065173311466 0.2992799318989846
-0.6591522001677534 1.4101107480237998 0.30056437847778555
-0.6332768637599108 1.4419098439066989 0.30741486231134757
-0.5998351608708212 1.457649249332909 0.31084007870813934
-0.5813599370943877 1.5125068015977992 0.322614338227078
-0.5796986021490456 1.6204971648839879 0.34573468288536596
-0.5510593272343343 1.6622748654624835 0.3547259110169295
-0.508025063055469 1.661939005463584 0.3547259110169295
-0.47040349826731104 1.6786458664325066 0.35836521460351606
-0.42583758549615397 1.669297834892942 0.35643853197532
-0.379467049981377 1.6479352698339227 0.3519429051495436
-0.34326608141595855 1.668653407346691 0.35643853197532
-0.2942482264635823 1.62226944382004 0.34659098060456656
-0.25302575019415513 1.608947316528636 0.34380797473718067
-0.21567529874332772 1.6176561527599502 0.34573468288536596
-0.17716097496801667 1.6173555685397338 0.34573468288536596
-0.140239403645809 1.6330678154068186 0.3491598992821577
-0.06400951839985752 1.6494734777733366 0.35279922838873345
-0.025717680777556543 1.6751753254340145 0.35836521460351606
0.013579631908981779 1.6788688199243644 0.35922153784270594
0.05228307914199573 1.657566092492664 0.3547259110169295
0.09070052820179056 1.648266046507279 0.35279922838873345
0.13151983152266136 1.6739481686157034 0.35836521460351606
0.1701292977927659 1.664646624036087 0.35643853197532
0.20697945307039647 1.6433583605820095 0.3519429051495436
0.2500711529373195 1.669022867032873 0.3575089168843154
0.3270091830072498 1.6504218509580713 0.3536555261079341
0.3673355866450889 1.6501071243991339 0.3536555261079341
0.4070825307907589 1.6457968499015307 0.35279922838873345
0.4517073227030324 1.6584489840154708 0.3555822342561194
0.5013600740255013 1.6840621656669663 0.36114822047090195
0.544531356460436 1.6837252363120037 0.36114822047090195
0.5733607621737731 1.640498945452689 0.3519429051495436
0.6246172501747816 1.6610995824844441 0.35643853197532
0.671327688907416 1.6657351793633635 0.3575089168843154
0.7075610437985147 1.6434517717417505 0.35279922838873345
0.7736370612867582 1.686937333218555 0.36221860537989736
0.8087332667446849 1.659662652951607 0.35643853197532
0.8598147982827469 1.6642641357297547 0.3575089168843154
0.926516397063562 1.6947445267309116 0.36414531352808266
0.9785602573782982 1.6943383515307182 0.36414531352808266
1.028975596836127 1.6889447385830085 0.36307492861908724
1.0754802881511176 1.6755813863567013 0.3602919227517013
1.1651038138286267 1.7248833964968264 0.3709957718416554
1.26276036026097 1.7781229026282945 0.38255594417079936
1.3002074920090856 1.7428296147583493 0.3750632498078315
1.3466486202773869 1.7194664636007178 0.3701394741224548
1.4198409057215098 1.7278954537885216 0.3720661567506508
1.5048543296014008 1.7462326003736783 0.37613363471682687
1.617555438089446 1.7903543545060268 0.38576709889778554
-1.0593083828218026 1.3322313211868273 0.22535244352550635
-1.0386828710567926 1.3710715718772757 0.2319954915576594
-1.0104458105216918 1.4008520813625978 0.23710551913372574
-1.0004237423766433 1.457775641259677 0.24681458777260754
-1.0182746620661964 1.5609180208050861 0.26435901984485766
-1.0133477304502325 1.6358819004433371 0.27713410909046815
-0.9861742196941751 1.6786711177329585 0.28445848601058554
-0.9432104756918229 1.6953362857778997 0.2873541642426009
-0.8915949616625489 1.6949334535971747 0.2873541642426009
-0.859724293931403 1.7316859065482426 0.2936565478307718
-0.8160742205563796 1.7453456058052867 0.29604121924409155
-0.7480246603369353 1.7028132992707845 0.28888718469868757
-0.6932733127984331 1.684385438687607 0.28582116409195885
-0.6527873491425737 1.6980698321716137 0.2882058355052786
-0.6188564301890147 1.7298060584319792 0.2936565478307718
-0.5597136069889036 1.6883432223100099 0.28667283535463656
-0.508025063055469 1.661939005463584 0.28224413666653453
-0.46927833328877366 1.6746370147884384 0.28445848601058554
-0.4281420125996739 1.6783160375670512 0.2851398148985499
-0.37553812396474007 1.6309041289438202 0.27713410909046815
-0.34244026579133524 1.6646468919682844 0.2829254858599435
-0.29879936985516425 1.6473057006412022 0.2800297873224835
-0.2550778242975146 1.6219637392499862 0.2757714310090949
-0.21781680436586048 1.6336732665796831 0.2778154379784325
-0.17936091188575448 1.6373733279161264 0.27849678717184145
-0.140239403645809 1.6330678154068186 0.2778154379784325
-0.10147758617756032 1.6287652293094033 0.27713410909046815
-0.06400951839985752 1.6494734777733366 0.28071113651589247
-0.02551420376875362 1.662173449262266 0.2829254858599435
0.013579631908981779 1.6788688199243644 0.28582116409195885
0.05228307914199573 1.657566092492664 0.28224413666653453
0.09141218737749417 1.6612608997310723 0.2829254858599435
0.13120672751350398 1.6699505419113396 0.28445848601058554
0.17145385587928502 1.677636693903375 0.28582116409195885
0.20584901124193905 1.6343669652693766 0.27849678717184145
0.25066895847859966 1.673018271790189 0.2851398148985499
0.3295786923569336 1.6634022046297219 0.28360681474790783
0.3684459108176434 1.6550986064016444 0.28224413666653453
0.40806940737182473 1.649789218162197 0.2813924654038568
0.4506206741535936 1.6544572752100883 0.28224413666653453
0.5040322228478669 1.693041647973097 0.28888718469868757
0.5432413974191447 1.679735233451948 0.28667283535463656
0.579284696502504 1.6574533091168415 0.2829254858599435
0.6246172501747816 1.6610995824844441 0.28360681474790783
0.672934479103102 1.6697227095214178 0.2851398148985499
0.7092772277154623 1.6474384481388353 0.2813924654038568
0.7736370612867582 1.686937333218555 0.2882058355052786
0.8067915521337756 1.6556777367040232 0.2829254858599435
0.8505525483820345 1.6463358679054108 0.2813924654038568
0.913995090139362 1.6718415466438612 0.28582116409195885
0.9808602303260517 1.6983204717587368 0.29042018484932963
1.037465465428988 1.7028788449099717 0.2912718561120074
1.0869775770931538 1.693492210866415 0.2897388559613653
1.159055624838236 1.715930381637256 0.2936565478307718
1.2415693977656508 1.7482874020207808 0.2992775822255337
1.3039167444875284 1.7478008134802088 0.2992775822255337
1.3466486202773869 1.7194664636007178 0.2945082190934495
1.428007507612098 1.737832012725643 0.297744561769447
1.5391029056803196 1.785966488121649 0.30609095232695555
1.6130685631168182 1.7853892247223733 0.30609095232695555
-1.0609104671669387 1.334243859778972 0.16856129616752202
-1.0455495697802752 1.3801253807031457 0.17441323578086096
-1.0402217683196324 1.4420857244085414 0.18230063660718834
-1.021146450855932 1.4879382562202765 0.18815257622052728
-1.015649028997589 1.556897458789743 0.1969304856405357
-0.9977695064172932 1.6107595830059953 0.20380015586036887
-0.996218022926972 1.6957499820521535 0.21461351132802864
-0.9381759777472073 1.6862967763240142 0.21346857387405832
-0.8915949616625489 1.6949334535971747 0.21461351132802864
-0.8642149127505032 1.7407211713090682 0.22046545094136757
-0.822651817774042 1.7593974250614122 0.22288256302745849
-0.764354128968836 1.7399418099473496 0.22046545094136757
-0.6916195127197704 1.6803723421092307 0.21295970098814268
-0.6562622215916964 1.7070972887744327 0.2163945436807278
-0.6120307325253835 1.710752155377319 0.21690340140130637
-0.5610450163297904 1.6923536835838147 0.21461351132802864
-0.5064906373677249 1.6569268825670762 0.21016095319428638
-0.4678718602991214 1.6696258904960395 0.21181476353417236
-0.42481340245535093 1.6652897713602575 0.2113059058135938
-0.3773870384287211 1.6389188186062038 0.20799828513382185
-0.3397563280939989 1.651625537880963 0.2096520954737078
-0.29879936985516425 1.6473057006412022 0.20914322258779217
-0.2517629339138269 1.6009372010570528 0.20329128297445323
-0.21621067116007425 1.6216604013805223 0.2059628239208334
-0.1780409392449851 1.6253625768380848 0.20647168164141197
-0.13920404054872776 1.6210594047708236 0.2059628239208334
-0.10197893541747852 1.6367694019276757 0.20799828513382185
-0.06369644189948558 1.6414707745256532 0.2086343648672136
-0.025185506981491395 1.6411702167537017 0.2086343648672136
0.013649869639251145 1.6878684895773177 0.21461351132802864
0.05240812401643509 1.6615653061134625 0.2113059058135938
0.09310921376861972 1.6922484983210526 0.2152495910614204
0.13120672751350398 1.6699505419113396 0.2124508432675641
0.17145385587928502 1.677636693903375 0.21346857387405832
0.20748188330674872 1.6473546289067826 0.2096520954737078
0.2473809923691132 1.6510433074772053 0.21016095319428638
0.2892953571685738 1.663716595061862 0.21181476353417236
0.3246373372853262 1.6384400318107897 0.2086343648672136
0.3673355866450889 1.6501071243991339 0.21016095319428638
0.410289923796612 1.6587722252237627 0.2113059058135938
0.45523884143242777 1.6714217104924713 0.21295970098814268
0.4975003271000649 1.6710918816270162 0.21295970098814268
0.5432413974191447 1.679735233451948 0.21410465360745007
0.579284696502504 1.6574533091168415 0.2113059058135938
0.6216184063553774 1.65312272704841 0.21079703292767812
0.6801651307570811 1.6876668329110405 0.2152495910614204
0.7148549021659295 1.6603953246499785 0.21181476353417236
0.7654120270428074 1.6690009704666926 0.21295970098814268
0.8305778165249893 1.7044934951627189 0.21753948113469812
0.8531253921688194 1.6513159357047185 0.21079703292767812
0.913995090139362 1.6718415466438612 0.21346857387405832
0.973385215427726 1.6853784030007384 0.2152495910614204
1.010176509149071 1.6580904934535143 0.21181476353417236
1.0697316056083457 1.6666259147925147 0.21295970098814268
1.140238921151309 1.6880763863363726 0.21575846394733605
1.2217911492622726 1.7204409110759533 0.21995659322078903
1.3113352494444137 1.7577432109239277 0.22479080222763376
1.37234174697537 1.7522669395084445 0.224154722494242
1.4124910029614097 1.7189525981263627 0.21995659322078903
1.526259689650725 1.7710662802161599 0.226699041427809
1.6220423130620734 1.7953194842896802 0.22987944009476777
-1.052098860029344 1.3231747175848874 0.11110954610211776
-1.040971709995776 1.3740894282040572 0.1154220169544816
-1.0148032973225685 1.4068863139654257 0.11821244875789755
-1.012166594045962 1.4748677657662346 0.12396240653433954
-0.9913615709836031 1.5197067209414927 0.12776752431696786
-0.9877994133230794 1.594681251929033 0.1341093973681444
-0.9731763525440592 1.6565690509809066 0.1393520121549802
-0.9532795382657958 1.7134154244190303 0.1441718259969502
-0.8942389397492794 1.6999542359717663 0.14307256773260948
-0.8527388141807647 1.7176309039815696 0.14459461686168668
-0.8296992073594616 1.7744528687750982 0.14941444078378602
-0.7815663142388558 1.77907736413902 0.1498372316485225
-0.6953405259320751 1.6894017197123974 0.14231154820813555
-0.6543317522397459 1.7020820749635763 0.14341080647247628
-0.6120307325253835 1.710752155377319 0.1441718259969502
-0.5610450163297904 1.6923536835838147 0.142649776867873
-0.508025063055469 1.661939005463584 0.14011303167945413
-0.4678718602991214 1.6696258904960395 0.14078949907905836
-0.42250894482840495 1.6562714492350088 0.13969024081471765
-0.36606245455615993 1.5898289190665666 0.1341093973681444
-0.3370723903966627 1.6386041837936416 0.13825275389063948
-0.29807119559313655 1.643299947302732 0.13867554475537597
-0.2511315351823582 1.5969322030011512 0.13478586476774862
-0.21781680436586048 1.6336732665796831 0.1379145151507727
-0.17991089611518893 1.6423777677602245 0.13867554475537597
-0.14136105128657972 1.6460769766346433 0.13901377341511342
-0.10229227775859356 1.6417719949051928 0.13867554475537597
-0.06400951839985752 1.6494734777733366 0.1393520121549802
-0.02504463613014107 1.6321687802953961 0.1379145151507727
0.013579631908981779 1.6788688199243644 0.14188875734339906
0.052814509610310395 1.674562422625508 0.1415505186035323
0.09141218737749417 1.6612608997310723 0.1404512704193209
0.13081534283638385 1.6649534489608377 0.14078949907905836
0.17288029557485052 1.6916259266108384 0.14307256773260948
0.20697945307039647 1.6433583605820095 0.13901377341511342
0.24872608156132775 1.660033146791976 0.1404512704193209
0.29710105859990105 1.7086570031661292 0.14459461686168668
0.3270091830072498 1.6504218509580713 0.13969024081471765
0.366447337895932 1.6461139863996526 0.1393520121549802
0.40930301780395345 1.6547797379797187 0.14011303167945413
0.4517073227030324 1.6584489840154708 0.1404512704193209
0.4975003271000649 1.6710918816270162 0.1415505186035323
0.5474338219697467 1.6927029211164528 0.14341080647247628
0.574754646179471 1.644488256445492 0.1393520121549802
0.6231178506081618 1.657111214198511 0.1404512704193209
0.6817719688394631 1.6916544819082842 0.14341080647247628
0.7170001576355765 1.6653787295532072 0.14121228994379484
0.7594717759792816 1.6560470428899292 0.1404512704193209
0.8398011055976832 1.723422144241961 0.1462012281957629
0.8484942978891805 1.6423518611596375 0.1393520121549802
0.9047402336816786 1.6549132983034933 0.1404512704193209
0.9837352307834525 1.7032981813827393 0.14459461686168668
1.032007703089451 1.6939212220781705 0.14383359733721274
1.0754802881511176 1.6755813863567013 0.14231154820813555
1.1341906520492715 1.6791232528891118 0.142649776867873
1.2119019829078836 1.7065176063256693 0.14501740772642316
1.3076259969659714 1.7527720122020682 0.14899164991904953
1.3575486896334077 1.7333817595671204 0.14738503858497332
1.4124910029614097 1.7189525981263627 0.1462012281957629
1.497148338742359 1.737292404580589 0.1478078294497098
1.608581688144191 1.7804240949387198 0.1515283951074684
-1.0609104671669387 1.334243859778972 0.055920064571648845
-1.0280012285440494 1.35698772268699 0.0568907525305326
-1.0126245539221304 1.4038691976640116 0.058874334241285804
-1.0024959473487929 1.4607918068712749 0.061279948726458595
-0.9985821792987294 1.5307634462191284 0.06423421839609555
-0.983437525450423 1.587647027005109 0.06663983791235584
-0.9708130591519405 1.6525504171770653 0.06938308364815177
-0.9667049772593405 1.7375209825183242 0.07297041002604934
-0.9064012515557209 1.7230498588358665 0.07237955407968695
-0.8527388141807647 1.7176309039815696 0.07216853517693342
-0.818423350418186 1.7503640870431822 0.07356126094132423
-0.7687675017132176 1.749976549028774 0.07356126094132423
-0.6969942767244891 1.6934146966932002 0.07119784721804966
-0.6458376502703482 1.680015038538105 0.07064919706467297
-0.6120307325253835 1.710752155377319 0.07195751627417989
-0.564040746866188 1.7013774007337732 0.07157768426165852
-0.5104801514725785 1.669958425997684 0.07026936505215162
-0.46562149680908566 1.6616080677332759 0.06993173380152846
-0.41815612111985284 1.6392370000443914 0.06900325163563041
-0.3746136529572912 1.626896724398658 0.06849680224415193
-0.3370723903966627 1.6386041837936416 0.06900325163563041
-0.2942482264635823 1.62226944382004 0.0683279891343841
-0.24813234416440488 1.577908163836169 0.06647101977150051
-0.21232916529424845 1.5926291812003184 0.06710407647976112
-0.1807908735048157 1.650384895373833 0.0695519017890071
-0.13989428604192808 1.6290650516258844 0.06866562038500726
-0.10172825706218408 1.6327672559829272 0.06883443349477508
-0.06416605431744654 1.6534747697725138 0.06972071489877492
-0.02524811500483252 1.6451707756946272 0.06938308364815177
0.013478176686107558 1.665869204376808 0.07026936505215162
0.052939554484749754 1.6785616362463065 0.0708180152055283
0.09141218737749417 1.6612608997310723 0.07010055194238378
0.13081534283638385 1.6649534489608377 0.07026936505215162
0.17328785844937966 1.695622935325918 0.07157768426165852
0.21024519720001583 1.6693336878568217 0.07048038395490515
0.24618536347033007 1.6430523788887001 0.06938308364815177
0.2924176418767181 1.6816927821138765 0.07102903410828183
0.366447337895932 1.6461139863996526 0.0695519017890071
0.40930301780395345 1.6547797379797187 0.06993173380152846
0.45415222526709104 1.667430120647268 0.07048038395490515
0.49364061556826555 1.658121716523757 0.07010055194238378
0.5461438244841852 1.6887127993435145 0.07140886612080319
0.5778908124968061 1.6534639981240387 0.06993173380152846
0.6216184063553774 1.65312272704841 0.06993173380152846
0.6837804805274186 1.6966389540254467 0.07178870316441205
0.7264392714726384 1.687305687364664 0.07140886612080319
0.7594717759792816 1.6560470428899292 0.07010055194238378
0.8262089297162684 1.6955273742250117 0.07178870316441205
0.861873048775601 1.6682481424755282 0.07064919706467297
0.8933077219469553 1.634001855896529 0.06921427053838394
0.973385215427726 1.6853784030007384 0.07140886612080319
1.037465465428988 1.7028788449099717 0.07216853517693342
1.0722866010085248 1.6706061639161507 0.0708180152055283
1.128142463058881 1.6701702380295413 0.0708180152055283
1.2147274950971663 1.710495744206782 0.07254837222054226
1.2972400369649983 1.7388525846672258 0.07377227984407776
1.3536557944614087 1.7284119940807543 0.0733502420385707
1.4084077020161154 1.713984318657802 0.07275939112329581
1.4808803059323958 1.7184188552668336 0.07297041002604934
1.640887230737324 1.8161730767322377 0.0771485873192218
-1.0312715725567796 1.2970114759706202 0.0
-1.0280012285440494 1.35698772268699 0.0
-1.0060883237208151 1.3948178487597698 0.0
-0.9983514550597694 1.4547593557925016 0.0
-1.015649028997589 1.556897458789743 0.0
-0.983437525450423 1.587647027005109 0.0
-0.9654957722729419 1.6435087007029598 0.0
-0.9588734545085873 1.7234593770270628 0.0
-0.9037572734689906 1.718029076461275 0.0
-0.8412627156110261 1.6945406366540707 0.0
-0.8160742205563796 1.7453456058052867 0.0
-0.7815663142388558 1.77907736413902 0.0
-0.7065034669964917 1.7164896133267502 0.0
-0.6527873491425737 1.6980698321716137 0.0
-0.6120307325253835 1.710752155377319 0.0
-0.5687007192388939 1.715414134714688 0.0
-0.5104801514725785 1.669958425997684 0.0
-0.4678718602991214 1.6696258904960395 0.0
-0.4194363651825697 1.6442471391858164 0.0
-0.37553812396474007 1.6309041289438202 0.0
-0.334594894299712 1.6265843988484214 0.0
-0.2942482264635823 1.62226944382004 0.0
-0.2487637617132644 1.5819132812518504 0.0
-0.20978612238138244 1.573608821246434 0.0
-0.1807908735048157 1.650384895373833 0.0
-0.13920404054872776 1.6210594047708236 0.0
-0.10122690782226589 1.624763083364655 0.0
-0.06385297781707457 1.6454720665248304 0.0
-0.025185506981491395 1.6411702167537017 0.0
0.013446960123840735 1.6618693776878641 0.0
0.052939554484749754 1.6785616362463065 0.0
0.09234281559532044 1.678254114333576 0.0
0.13081534283638385 1.6649534489608377 0.0
0.17196330036286048 1.68263286545863 0.0
0.211250042699386 1.6773261054103072 0.0
0.2473809923691132 1.6510433074772053 0.0
0.2892953571685738 1.663716595061862 0.0
0.3295786923569336 1.6634022046297219 0.0
0.36356048975284727 1.6331361093918615 0.0
0.40930301780395345 1.6547797379797187 0.0
0.4517073227030324 1.6584489840154708 0.0
0.49364061556826555 1.658121716523757 0.0
0.544531356460436 1.6837252363120037 0.0
0.5824208628198392 1.6664290507953883 0.0
0.6216184063553774 1.65312272704841 0.0
0.6781566190691256 1.6826823607938781 0.0
0.728155506536511 1.6912924825754936 0.0
0.7612995371569465 1.6600328484846576 0.0
0.819412812841386 1.681579929835893 0.0
0.8685624548895284 1.6811963425005645 0.0
0.8954853123259094 1.637984931256701 0.0
0.9653352415651709 1.6714408635247147 0.0
1.0265498684587984 1.6849634805976437 0.0
1.0812288945503818 1.6845367393022284 0.0
1.128142463058881 1.6701702380295413 0.0
1.204838328742777 1.696572439456498 0.0
1.2935307844865556 1.7338813859453663 0.0
1.361441584805407 1.7383515250534864 0.0
1.4084077020161154 1.713984318657802 0.0
1.476599233922531 1.7134521192983372 0.0
1.5951210632263082 1.7655287055877593 0.0
-1.0392820897753574 1.3070742888895364 -0.05478056350299726
-1.0280012285440494 1.35698772268699 -0.0568907525305326
-1.0104458105216918 1.4008520813625978 -0.05874772189341619
-0.9824640287567032 1.431634660351593 -0.06005604110292309
-0.9749511686773805 1.494577908786528 -0.06271488028383512
-0.9759599184883467 1.575588218801058 -0.06613338852087736
-0.9584059625270248 1.631452919054029 -0.06849680224415193
-0.9409729358686031 1.6913187526280304 -0.07102903410828183
-0.9037572734689906 1.718029076461275 -0.07216853517693342
-0.8482481953616645 1.708595639220744 -0.07178870316441205
-0.8207724802799925 1.7553825682810775 -0.07377227984407776
-0.7709741880854083 1.754993918569486 -0.07377227984407776
-0.7065034669964917 1.7164896133267502 -0.07216853517693342
-0.6578065786628488 1.711109411994266 -0.07195751627417989
-0.6188564301890147 1.7298060584319792 -0.07275939112329581
-0.5733607312912008 1.7294509882182019 -0.07275939112329581
-0.5144696655774319 1.682989969428292 -0.0708180152055283
-0.46562149680908566 1.6616080677332759 -0.06993173380152846
-0.4194363651825697 1.6442471391858164 -0.06921427053838394
-0.367911369020141 1.5978436087289503 -0.06727289462061643
-0.33025932535312913 1.6055500140042869 -0.06761052587123959
-0.28969708307200037 1.5972331869988778 -0.06727289462061643
-0.24497531287227975 1.557882934837101 -0.06562694416048638
-0.2061723027239299 1.5465797253765161 -0.06516270056199361
-0.1776009571065009 1.6213590726889093 -0.0683279891343841
-0.13851379505552747 1.6130537579157627 -0.06799035788376095
-0.10172825706218408 1.6327672559829272 -0.06883443349477508
-0.06416605431744654 1.6534747697725138 -0.06972071489877492
-0.025310724894062168 1.6491714538630349 -0.0695519017890071
0.013283070846094838 1.6408699895567609 -0.06921427053838394
0.05322089893075029 1.6875596583213899 -0.07119784721804966
0.09163115641961682 1.665259261109783 -0.07026936505215162
0.13081534283638385 1.6649534489608377 -0.07026936505215162
0.17196330036286048 1.68263286545863 -0.07102903410828183
0.2123804845278434 1.68631750072294 -0.07119784721804966
0.25066895847859966 1.673018271790189 -0.07064919706467297
0.28565268822939427 1.6427443569925886 -0.06938308364815177
0.3270091830072498 1.6504218509580713 -0.06972071489877492
0.366447337895932 1.6461139863996526 -0.0695519017890071
0.4070825307907589 1.6457968499015307 -0.0695519017890071
0.4492623877548716 1.6494677284234947 -0.06972071489877492
0.49482821367133656 1.6621125182575767 -0.07026936505215162
0.5461438244841852 1.6887127993435145 -0.07140886612080319
0.5838147052852597 1.6704182428994712 -0.07064919706467297
0.6216184063553774 1.65312272704841 -0.06993173380152846
0.674541317185484 1.6737103585186612 -0.0708180152055283
0.7303007620061579 1.6962758874787223 -0.07178870316441205
0.7654120270428074 1.6690009704666926 -0.07064919706467297
0.819412812841386 1.681579929835893 -0.07119784721804966
0.8711352986763132 1.6861764102998722 -0.07140886612080319
0.89058570152422 1.6290229523431017 -0.06900325163563041
0.9607352271242461 1.6634765043907187 -0.07048038395490515
1.0459554063129648 1.7168130698856605 -0.07275939112329581
1.0837838899505607 1.6885169884258644 -0.07157768426165852
1.1254543167540931 1.6661910280793064 -0.07064919706467297
1.1956555614870588 1.6836436988154273 -0.07140886612080319
1.3002074920090856 1.7428296147583493 -0.07394109798493309
1.3575486896334077 1.7333817595671204 -0.07356126094132423
1.401057701902442 1.7050413445425172 -0.07237955407968695
1.4569062822633911 1.6906051101599888 -0.07178870316441205
1.569097124199746 1.73673088181575 -0.07377227984407776
-1.0352768311660685 1.3020428824300783 -0.10933383051830214
-1.012741817200073 1.3368680409203786 -0.11229336657145751
-0.9951946932935022 1.3797323871412914 -0.11592937002421709
-0.9762471668060825 1.4225858039500665 -0.11956537347697668
-0.9703562716818324 1.4875418653478636 -0.12506166479868025
-0.9591354513893388 1.5484561399272605 -0.13021971738051705
-0.9607692559191436 1.6354715528578703 -0.13757628649103526
-0.9482450403211802 1.7043759149651447 -0.14341080647247628
-0.9185635633621625 1.7461454816999664 -0.14696224772023683
-0.8572294924806233 1.7266662884195314 -0.14535564646628993
-0.8118458092081974 1.7363123874370876 -0.1462012281957629
-0.7749462551222834 1.7640252555168834 -0.14856885905431305
-0.72221429666942 1.7546133730346714 -0.1478078294497098
-0.6578065786628488 1.711109411994266 -0.1441718259969502
-0.6120307325253835 1.710752155377319 -0.1441718259969502
-0.5733607312912008 1.7294509882182019 -0.1457784373310264
-0.5104801514725785 1.669958425997684 -0.14078949907905836
-0.46562149680908566 1.6616080677332759 -0.14011303167945413
-0.41303514486898535 1.619196443478691 -0.13656159043169358
-0.367911369020141 1.5978436087289503 -0.13478586476774862
-0.32778182925617844 1.593530229059067 -0.13444762602788182
-0.2904252573340281 1.601238940337348 -0.13512409342748607
-0.24450175441498279 1.5548791266152848 -0.13123441343985873
-0.20563693030718339 1.542575476755944 -0.13021971738051705
-0.1784809344961277 1.6293662003025178 -0.13757628649103526
-0.13739214741475672 1.600044596687938 -0.13512409342748607
-0.10047488769772393 1.6127568840728588 -0.13622335169182678
-0.06385297781707457 1.6454720665248304 -0.13901377341511342
-0.025185506981491395 1.6411702167537017 -0.13867554475537597
0.013150398130615765 1.6238704281146015 -0.13723804775116846
0.052939554484749754 1.6785616362463065 -0.14188875734339906
0.09212384002732779 1.6742556337928765 -0.1415505186035323
0.13120672751350398 1.6699505419113396 -0.14121228994379484
0.17288029557485052 1.6916259266108384 -0.14307256773260948
0.2146413831580926 1.704300410444267 -0.1441718259969502
0.24872608156132775 1.660033146791976 -0.1404512704193209
0.2870403726194658 1.6507337866880993 -0.13969024081471765
0.3279974540215713 1.6554142855218577 -0.14011303167945413
0.3684459108176434 1.6550986064016444 -0.14011303167945413
0.4070825307907589 1.6457968499015307 -0.1393520121549802
0.4492623877548716 1.6494677284234947 -0.13969024081471765
0.49245298207155747 1.6541307958532463 -0.14011303167945413
0.5461438244841852 1.6887127993435145 -0.14307256773260948
0.5852085892909578 1.674407553892274 -0.14188875734339906
0.6231178506081618 1.657111214198511 -0.1404512704193209
0.672934479103102 1.6697227095214178 -0.1415505186035323
0.728155506536511 1.6912924825754936 -0.14341080647247628
0.7695245714008974 1.67796921123652 -0.14231154820813555
0.8174710982304767 1.6775950135883093 -0.14231154820813555
0.8778247047902409 1.6991246103249087 -0.1441718259969502
0.9069178240606325 1.6588963736636655 -0.14078949907905836
0.9291102220928372 1.6087216985266906 -0.13656159043169358
1.0429233000596407 1.7118365863904985 -0.14535564646628993
1.0812288945503818 1.6845367393022284 -0.14307256773260948
1.1227662505609524 1.6622119367167618 -0.14121228994379484
1.1956555614870588 1.6836436988154273 -0.14307256773260948
1.2831449129211376 1.7199620769332504 -0.1462012281957629
1.3536557944614087 1.7284119940807543 -0.14696224772023683
1.4043244010708216 1.7090160391892415 -0.14535564646628993
1.4603310990437597 1.6945784515682554 -0.1441718259969502
1.586147313281053 1.7555984460204523 -0.14941444078378602
-1.0184547068098957 1.280910927317077 -0.16181884796050203
-1.012741817200073 1.3368680409203786 -0.16894294704062449
-0.9908372064926253 1.3736981545384634 -0.17364993403465603
-0.9714118846298597 1.4155478844303755 -0.1789930159274164
-0.9637921107593433 1.4774903404858777 -0.18688041675374378
-0.9367027790687735 1.5122799549004247 -0.19133297488748605
-0.9389091265866314 1.5982997590446546 -0.202273552367959
-0.9264287269634486 1.6652044279538019 -0.21079703292767812
-0.9212075414488929 1.751166264074558 -0.2217376104081511
-0.8552336156315444 1.7226505221102808 -0.21817556086808987
-0.8052682119905348 1.7222605681809622 -0.21817556086808987
-0.764354128968836 1.7399418099473496 -0.22046545094136757
-0.723868096748083 1.7586264696130476 -0.22288256302745849
-0.6527873491425737 1.6980698321716137 -0.2152495910614204
-0.6120307325253835 1.710752155377319 -0.21690340140130637
-0.5763564221479972 1.7384745858455617 -0.22046545094136757
-0.5132421030770802 1.678980199412024 -0.21295970098814268
-0.46196466032939765 1.6485791206781133 -0.20914322258779217
-0.41508351095059143 1.6272125705440597 -0.20647168164141197
-0.36074683580380806 1.566786731072691 -0.19883872484071097
-0.32303332788574357 1.570492467120729 -0.19934758256128954
-0.2825972863601944 1.558176554728491 -0.19782099423421673
-0.24087116466556083 1.531850089394401 -0.1945133735544448
-0.20376309493747716 1.5285603679090525 -0.19413172268134232
-0.17716097496801667 1.6173555685397338 -0.20545396620025483
-0.13773727530407617 1.6040474797620647 -0.20380015586036887
-0.09991087447198516 1.6037522644218178 -0.20380015586036887
-0.06236586793920326 1.607459315535331 -0.20430901358094744
-0.02524811500483252 1.6451707756946272 -0.20914322258779217
0.01301772634547472 1.6068709858781012 -0.20430901358094744
0.05228307914199573 1.657566092492664 -0.21079703292767812
0.09212384002732779 1.6742556337928765 -0.21295970098814268
0.13081534283638385 1.6649534489608377 -0.21181476353417236
0.17196330036286048 1.68263286545863 -0.21410465360745007
0.21589743628897168 1.7142909026121085 -0.21817556086808987
0.25261185321209434 1.6860035158622753 -0.21461351132802864
0.28860152531257144 1.659721939739876 -0.2113059058135938
0.3246373372853262 1.6384400318107897 -0.2086343648672136
0.366447337895932 1.6461139863996526 -0.2096520954737078
0.4070825307907589 1.6457968499015307 -0.2096520954737078
0.4481757715895349 1.6454761385782912 -0.2096520954737078
0.49364061556826555 1.658121716523757 -0.2113059058135938
0.540338931909834 1.6707575486474986 -0.21295970098814268
0.5869509131428722 1.6793941034667377 -0.21410465360745007
