x y z
0.09588765183378291 0.3170414343713205 -0.03940193711476716
0.10059456419439275 0.3190250834027332 -0.03965208476010455
0.10604559912206993 0.3230061610780148 -0.04015238005077933
0.11128860089941842 0.3259879391632163 -0.040527599655043996
0.11628694025088576 0.327970574830004 -0.04077774730038139
0.12063290036073761 0.32795546283840643 -0.04077774730038139
0.1250164367668065 0.32794022018461727 -0.04077774730038139
0.12983665256013527 0.32892348206068567 -0.0409028229867915
0.13431413690642927 0.3289079127263823 -0.0409028229867915
0.13883462231061275 0.3288921938666325 -0.0409028229867915
0.03324437065051267 0.35025948242526234 -0.04427924230310563
0.036842653349354965 0.34524694483556845 -0.04364316256971388
0.04045379539918096 0.3412343557016269 -0.04313429726646677
0.04384783644167267 0.33622252831131744 -0.04249821753307501
0.04727995202060285 0.3322105616972462 -0.04198935222982791
0.05062956400590046 0.3281988819688302 -0.041480486926580795
0.05423560828261906 0.3261863267054965 -0.04122605427495724
0.06134978434901627 0.32216158644756804 -0.040717192763044405
0.0648596661915523 0.3201493655650986 -0.04046276011142085
0.06855697338346396 0.319136486128691 -0.040335541889941935
0.07201937563400856 0.31712443034465254 -0.04008110923831838
0.07569563509069127 0.3161116538989936 -0.03995389480817374
0.07936905338194884 0.3150988873327783 -0.0398266803780291
0.08330802286008869 0.31508519054952394 -0.0398266803780291
0.08727144465640226 0.31507140873943607 -0.0398266803780291
0.0912606476418581 0.3150575372816975 -0.0398266803780291
0.09558232207223813 0.3160425029084248 -0.03995389480817374
0.10059456419439275 0.3190250834027332 -0.040335541889941935
0.10604559912206993 0.3230061610780148 -0.04084440719318905
0.11163275313118164 0.3269867654331638 -0.04135327249643615
0.11628694025088576 0.327970574830004 -0.041480486926580795
0.12063290036073761 0.32795546283840643 -0.041480486926580795
0.1250164367668065 0.32794022018461727 -0.041480486926580795
0.12983665256013527 0.32892348206068567 -0.04160770514805971
0.13431413690642927 0.3289079127263823 -0.04160770514805971
0.13883462231061275 0.3288921938666325 -0.04160770514805971
0.03324437065051267 0.35025948242526234 -0.045029519412397495
0.03695205999713937 0.34624655757219286 -0.04451207949682281
0.04045379539918096 0.3412343557016269 -0.04386528152996443
0.04384783644167267 0.33622252831131744 -0.043218483563106064
0.04727995202060285 0.3322105616972462 -0.04270104364753138
0.05062956400590046 0.3281988819688302 -0.04218360373195668
0.05423560828261906 0.3261863267054965 -0.04192488377416934
0.057627511774598086 0.32317452289235976 -0.041536805765098314
0.06134978434901627 0.32216158644756804 -0.04140744771381463
0.0648596661915523 0.3201493655650986 -0.04114872775602729
0.06833923292235214 0.318137250095864 -0.040890007798239945
0.07201937563400856 0.31712443034465254 -0.04076064589173628
0.07569563509069127 0.3161116538989936 -0.0406312878404526
0.07936905338194884 0.3150988873327783 -0.04050192978916892
0.08330802286008869 0.31508519054952394 -0.04050192978916892
0.08727144465640226 0.31507140873943607 -0.04050192978916892
0.0912606476418581 0.3150575372816975 -0.04050192978916892
0.09558232207223813 0.3160425029084248 -0.0406312878404526
0.10059456419439275 0.3190250834027332 -0.04101936584952363
0.10571449278507491 0.3220073192467268 -0.04140744771381463
0.11163275313118164 0.3269867654331638 -0.04205424568067301
0.11628694025088576 0.327970574830004 -0.04218360373195668
0.12063290036073761 0.32795546283840643 -0.04218360373195668
0.1250164367668065 0.32794022018461727 -0.04218360373195668
0.12983665256013527 0.32892348206068567 -0.04231296563846035
0.13431413690642927 0.3289079127263823 -0.04231296563846035
0.13883462231061275 0.3288921938666325 -0.04231296563846035
0.03334193367313354 0.3512591363451372 -0.045911708845286135
0.03695205999713937 0.34624655757219286 -0.04525418679523508
0.04045379539918096 0.3412343557016269 -0.04459666474518403
0.04384783644167267 0.33622252831131744 -0.04393914269513297
0.04727995202060285 0.3322105616972462 -0.04341312348743591
0.05062956400590046 0.3281988819688302 -0.042887104279738845
0.054066473231162565 0.32518692165948865 -0.042492591833536326
0.057627511774598086 0.32317452289235976 -0.04222958222968779
0.06134978434901627 0.32216158644756804 -0.04209807938733381
0.0648596661915523 0.3201493655650986 -0.04183506978348527
0.06833923292235214 0.318137250095864 -0.041572060179636744
0.07178933914937083 0.31612523706817847 -0.04130905057578821
0.07569563509069127 0.3161116538989936 -0.04130905057578821
0.07936905338194884 0.3150988873327783 -0.041177547733434225
0.08330802286008869 0.31508519054952394 -0.041177547733434225
0.08727144465640226 0.31507140873943607 -0.041177547733434225
0.0912606476418581 0.3150575372816975 -0.041177547733434225
0.09558232207223813 0.3160425029084248 -0.04130905057578821
0.10059456419439275 0.3190250834027332 -0.04170356302199073
0.10571449278507491 0.3220073192467268 -0.04209807938733381
0.11163275313118164 0.3269867654331638 -0.04275560143738486
0.1166442330862602 0.3289693554067822 -0.04301861104123339
0.12063290036073761 0.32795546283840643 -0.042887104279738845
0.1250164367668065 0.32794022018461727 -0.042887104279738845
0.12983665256013527 0.32892348206068567 -0.04301861104123339
0.13431413690642927 0.3289079127263823 -0.04301861104123339
0.13883462231061275 0.3288921938666325 -0.04301861104123339
0.03334193367313354 0.3512591363451372 -0.04666495791649969
0.03695205999713937 0.34624655757219286 -0.04599670583326739
0.04045379539918096 0.3412343557016269 -0.04532845375003509
0.04384783644167267 0.33622252831131744 -0.04466020166680279
0.04727995202060285 0.3322105616972462 -0.044125598406978314
0.05062956400590046 0.3281988819688302 -0.04359099514715383
0.054066473231162565 0.32518692165948865 -0.04319004469383378
0.057627511774598086 0.32317452289235976 -0.042922743063921534
0.061156449062635426 0.3211622357493345 -0.042655441434009296
0.0648596661915523 0.3201493655650986 -0.042521792610601475
0.06833923292235214 0.318137250095864 -0.04225449098068924
0.07178933914937083 0.31612523706817847 -0.041987189350777
0.07545323706975755 0.31511250360667675 -0.04185354052736918
0.07936905338194884 0.3150988873327783 -0.04185354052736918
0.08330802286008869 0.31508519054952394 -0.04185354052736918
0.08699152066019837 0.31407235913182974 -0.04171988772086476
0.0912606476418581 0.3150575372816975 -0.04185354052736918
0.09558232207223813 0.3160425029084248 -0.041987189350777
0.10059456419439275 0.3190250834027332 -0.04238813980409706
0.10604559912206993 0.3230061610780148 -0.042922743063921534
0.1123210473383459 0.3289843882062202 -0.043724647953658255
0.11700151527365861 0.3299681062180835 -0.043858296777066076
0.12100344329841996 0.32895419734126086 -0.043724647953658255
0.1250164367668065 0.32794022018461727 -0.04359099514715383
0.12983665256013527 0.32892348206068567 -0.043724647953658255
0.13431413690642927 0.3289079127263823 -0.043724647953658255
0.13883462231061275 0.3288921938666325 -0.043724647953658255
0.03334193367313354 0.3512591363451372 -0.047418631731003885
0.03695205999713937 0.34624655757219286 -0.04673964356412207
0.04045379539918096 0.3412343557016269 -0.04606065539724027
0.04398102211474772 0.3372220583623163 -0.04551746324489933
0.04727995202060285 0.3322105616972462 -0.044838475078017526
0.05062956400590046 0.3281988819688302 -0.04429528292567659
0.054066473231162565 0.32518692165948865 -0.04388789083496525
0.057627511774598086 0.32317452289235976 -0.043616294758794784
0.061156449062635426 0.3211622357493345 -0.04334469868262431
0.06465415399161709 0.31915005720904277 -0.04307310260645385
0.06833923292235214 0.318137250095864 -0.04293730659191297
0.07178933914937083 0.31612523706817847 -0.04266571051574251
0.07545323706975755 0.31511250360667675 -0.042529914501201624
0.07911421676465312 0.31409975049007327 -0.042394114439572035
0.08330802286008869 0.31508519054952394 -0.042529914501201624
0.08699152066019837 0.31407235913182974 -0.042394114439572035
0.0912606476418581 0.3150575372816975 -0.042529914501201624
0.09558232207223813 0.3160425029084248 -0.04266571051574251
0.10027639370893926 0.3180261965902501 -0.04293730659191297
0.10604559912206993 0.3230061610780148 -0.043616294758794784
0.11266518931374697 0.32998318470932914 -0.044566879001847054
0.11700151527365861 0.3299681062180835 -0.044566879001847054
0.12100344329841996 0.32895419734126086 -0.04443108298730618
0.12540034437061162 0.32893890821518085 -0.04443108298730618
0.12943926050971716 0.3279248409189197 -0.04429528292567659
0.13390313525179776 0.3279093189086182 -0.04429528292567659
0.13883462231061275 0.3288921938666325 -0.04443108298730618
0.03334193367313354 0.3512591363451372 -0.04817273735799868
0.03695205999713937 0.34624655757219286 -0.04748300695629833
0.04045379539918096 0.3412343557016269 -0.04679327655459799
0.04398102211474772 0.3372220583623163 -0.04624149058879072
0.04727995202060285 0.3322105616972462 -0.04555176018709038
0.05062956400590046 0.3281988819688302 -0.044999974221283115
0.054066473231162565 0.32518692165948865 -0.0445861368024864
0.057627511774598086 0.32317452289235976 -0.04431024381958277
0.061156449062635426 0.3211622357493345 -0.044034350836679136
0.06465415399161709 0.31915005720904277 -0.0437584578537755
0.06812148597198538 0.31713798428309925 -0.04348256487087187
0.07178933914937083 0.31612523706817847 -0.04334462043497879
0.07521083182470684 0.3141133235369774 -0.043068727452075156
0.07911421676465312 0.31409975049007327 -0.043068727452075156
0.08304068136719599 0.3140860971894028 -0.043068727452075156
0.08699152066019837 0.31407235913182974 -0.043068727452075156
0.09096805929591985 0.31405853171120657 -0.043068727452075156
0.09558232207223813 0.3160425029084248 -0.04334462043497879
0.10027639370893926 0.3180261965902501 -0.04362051341788242
0.1063767054590649 0.32400500290930273 -0.04444818825547585
0.11300934154551018 0.33098201097927665 -0.0454138157511973
0.11735880810903307 0.33096688679486164 -0.0454138157511973
0.12137397519324918 0.32995290208001143 -0.04527586720418675
0.12540034437061162 0.32893890821518085 -0.04513792276829367
0.12943926050971716 0.3279248409189197 -0.044999974221283115
0.13390313525179776 0.3279093189086182 -0.044999974221283115
0.13883462231061275 0.3288921938666325 -0.04513792276829367
0.03334193367313354 0.3512591363451372 -0.04892728188247346
0.03695205999713937 0.34624655757219286 -0.04822680299385988
0.04045379539918096 0.3412343557016269 -0.047526324105246306
0.04398102211474772 0.3372220583623163 -0.046965939324282044
0.04727995202060285 0.3322105616972462 -0.04626546043566847
0.05062956400590046 0.3281988819688302 -0.045705075654704205
0.054066473231162565 0.32518692165948865 -0.04528478915657276
0.057627511774598086 0.32317452289235976 -0.04500459676609063
0.061156449062635426 0.3211622357493345 -0.0447244043756085
0.06465415399161709 0.31915005720904277 -0.04444421198512637
0.06812148597198538 0.31713798428309925 -0.044164019594644235
0.07178933914937083 0.31612523706817847 -0.04402392548699492
0.07521083182470684 0.3141133235369774 -0.04374373309651279
0.07911421676465312 0.31409975049007327 -0.04374373309651279
0.08304068136719599 0.3140860971894028 -0.04374373309651279
0.08699152066019837 0.31407235913182974 -0.04374373309651279
0.09096805929591985 0.31405853171120657 -0.04374373309651279
0.09558232207223813 0.3160425029084248 -0.04402392548699492
0.10027639370893926 0.3180261965902501 -0.04430411787747705
0.10670782166392474 0.3250038745087802 -0.04528478915657276
0.11335348352091125 0.33198080748238556 -0.04626546043566847
0.11771609029643147 0.3319656376061629 -0.04626546043566847
0.12137397519324918 0.32995290208001143 -0.04598526804518634
0.12540034437061162 0.32893890821518085 -0.04584517393753703
0.12943926050971716 0.3279248409189197 -0.045705075654704205
0.13390313525179776 0.3279093189086182 -0.045705075654704205
0.13883462231061275 0.3288921938666325 -0.04584517393753703
0.03695205999713937 0.34624655757219286 -0.04897103867670398
0.04045379539918096 0.3412343557016269 -0.048259804947927996
0.04384783644167267 0.33622252831131744 -0.047548571219152014
0.04727995202060285 0.3322105616972462 -0.04697958254041626
0.05062956400590046 0.3281988819688302 -0.046410593861680505
0.054066473231162565 0.32518692165948865 -0.04598385447227239
0.057627511774598086 0.32317452289235976 -0.045699360132904515
0.061156449062635426 0.3211622357493345 -0.04541486579353664
0.06465415399161709 0.31915005720904277 -0.04513037145416876
0.06812148597198538 0.31713798428309925 -0.04484587711480088
0.07155930266473308 0.3151260437917044 -0.04456138701472043
0.07521083182470684 0.3141133235369774 -0.04441913772539278
0.07911421676465312 0.31409975049007327 -0.04441913772539278
0.08304068136719599 0.3140860971894028 -0.04441913772539278
0.08671160500623847 0.3130733392977179 -0.04427689267535255
0.09096805929591985 0.31405853171120657 -0.04441913772539278
0.09527699231069336 0.31504357144552914 -0.04456138701472043
0.10059456419439275 0.3190250834027332 -0.04513037145416876
0.10703892800091973 0.32600271634006817 -0.04612609952231263
0.11369762549631231 0.3329796039854945 -0.04712182759045649
0.1180733724838299 0.3329643884174642 -0.04712182759045649
0.12174451813093154 0.33095163658286586 -0.04683733749037603
0.12540034437061162 0.32893890821518085 -0.04655284315100815
0.12943926050971716 0.3279248409189197 -0.046410593861680505
0.13390313525179776 0.3279093189086182 -0.046410593861680505
0.13883462231061275 0.3288921938666325 -0.04655284315100815
0.14383859841739016 0.32987478695957206 -0.04669508820104838
0.03695205999713937 0.34624655757219286 -0.04971572102083161
0.04045379539918096 0.3412343557016269 -0.048993725997256835
0.04384783644167267 0.33622252831131744 -0.048271730973682064
0.04727995202060285 0.3322105616972462 -0.04769413323345033
0.05062956400590046 0.3281988819688302 -0.04711653549321859
0.054066473231162565 0.32518692165948865 -0.04668333933975969
0.057627511774598086 0.32317452289235976 -0.04639454046964382
0.06096311953799757 0.3201629148335685 -0.04596134431618492
0.06465415399161709 0.31915005720904277 -0.045816942729412086
0.06812148597198538 0.31713798428309925 -0.04552814385929622
0.07155930266473308 0.3151260437917044 -0.04523934929261015
0.07521083182470684 0.3141133235369774 -0.045094947705837315
0.07911421676465312 0.31409975049007327 -0.045094947705837315
0.08277334784156576 0.31308703360407997 -0.04495055042249428
0.08671160500623847 0.3130733392977179 -0.04495055042249428
0.09096805929591985 0.31405853171120657 -0.045094947705837315
0.09527699231069336 0.31504357144552914 -0.04523934929261015
0.10059456419439275 0.3190250834027332 -0.045816942729412086
0.11404177772807553 0.333978430255442 -0.047982932103566196
0.1180733724838299 0.3329643884174642 -0.04783853051679337
0.12174451813093154 0.33095163658286586 -0.047549735950107294
0.12540034437061162 0.32893890821518085 -0.047260937079991426
0.12943926050971716 0.3279248409189197 -0.04711653549321859
0.13390313525179776 0.3279093189086182 -0.04711653549321859
0.13840988034726207 0.32789364782736263 -0.04711653549321859
0.1433999927858689 0.32887631893025066 -0.047260937079991426
0.03695205999713937 0.34624655757219286 -0.05046085705861891
0.04045379539918096 0.3412343557016269 -0.04972809418398515
0.04384783644167267 0.33622252831131744 -0.04899533130935138
0.04727995202060285 0.3322105616972462 -0.048409119262599866
0.05062956400590046 0.3281988819688302 -0.04782290721584835
0.054066473231162565 0.32518692165948865 -0.047383250364590346
0.057627511774598086 0.32317452289235976 -0.047090144341214585
0.06096311953799757 0.3201629148335685 -0.04665048748995658
0.06444864791631902 0.31815077863419267 -0.04635738146658082
0.06812148597198538 0.31713798428309925 -0.046210826271087316
0.07155930266473308 0.3151260437917044 -0.04591772461532281
0.07521083182470684 0.3141133235369774 -0.045771169419829304
0.07911421676465312 0.31409975049007327 -0.045771169419829304
0.08277334784156576 0.31308703360407997 -0.04562461859194705
0.08671160500623847 0.3130733392977179 -0.04562461859194705
0.09067547966964619 0.31305955591289775 -0.04562461859194705
0.09527699231069336 0.31504357144552914 -0.04591772461532281
0.11438591970347659 0.3349772267585509 -0.04884877611385788
0.11843066531920435 0.33396316899424233 -0.04870222528597562
0.12211505002576074 0.3319503413216165 -0.048409119262599866
0.12540034437061162 0.32893890821518085 -0.047969462411341854
0.12943926050971716 0.3279248409189197 -0.04782290721584835
0.13390313525179776 0.3279093189086182 -0.04782290721584835
0.13840988034726207 0.32789364782736263 -0.04782290721584835
0.1433999927858689 0.32887631893025066 -0.047969462411341854
0.03695205999713937 0.34624655757219286 -0.05120645383909001
0.04045379539918096 0.3412343557016269 -0.050462916455272636
0.04384783644167267 0.33622252831131744 -0.04971937907145526
0.04713482413379667 0.3312110731723151 -0.04897584168763788
0.05062956400590046 0.3281988819688302 -0.04852971571188155
0.05389733313902385 0.3241874868285059 -0.047934884032094685
0.05744630470048532 0.32217515982379763 -0.04763747262403365
0.06096311953799757 0.3201629148335685 -0.047340056784140216
0.06444864791631902 0.31815077863419267 -0.04704264094424679
0.06790374551087354 0.3161387482502723 -0.04674522510435336
0.07155930266473308 0.3151260437917044 -0.04659651940032284
0.07521083182470684 0.3141133235369774 -0.04644780926445993
0.07885938774195185 0.3131006434234625 -0.04629910356042941
0.08277334784156576 0.31308703360407997 -0.04629910356042941
0.08643168101003461 0.31207428969011164 -0.046150393424566505
0.09067547966964619 0.31305955591289775 -0.04629910356042941
0.09527699231069336 0.31504357144552914 -0.04659651940032284
0.1009127441621877 0.32002399998474645 -0.047340056784140216
0.11473007193523979 0.3359760530284984 -0.04971937907145526
0.11843066531920435 0.33396316899424233 -0.04942196323156183
0.12211505002576074 0.3319503413216165 -0.049124547391668404
0.12540034437061162 0.32893890821518085 -0.048678425847744455
0.12943926050971716 0.3279248409189197 -0.04852971571188155
0.13390313525179776 0.3279093189086182 -0.04852971571188155
0.13840988034726207 0.32789364782736263 -0.04852971571188155
0.1433999927858689 0.32887631893025066 -0.048678425847744455
0.03324437065051267 0.35025948242526234 -0.05255597514921616
0.03706146664492379 0.3472461703088172 -0.052103380360400374
0.04384783644167267 0.33622252831131744 -0.05044388112172189
0.04713482413379667 0.3312110731723151 -0.04968956246848734
0.05047245416337635 0.3271994351081595 -0.04908610574746217
0.05389733313902385 0.3241874868285059 -0.04863351095864638
0.05744630470048532 0.32217515982379763 -0.04833178709422762
0.06096311953799757 0.3201629148335685 -0.04803005873371504
0.06444864791631902 0.31815077863419267 -0.047728330373202454
0.06790374551087354 0.3161387482502723 -0.04742660201268987
0.07155930266473308 0.3151260437917044 -0.04727574008048049
0.07521083182470684 0.3141133235369774 -0.04712487365217728
0.07885938774195185 0.3131006434234625 -0.0469740117199679
0.08250600634867307 0.3120879402439588 -0.046823145291664696
0.08643168101003461 0.31207428969011164 -0.046823145291664696
0.09067547966964619 0.31305955591289775 -0.0469740117199679
0.09497165344949544 0.3140446102117727 -0.04712487365217728
0.1009127441621877 0.32002399998474645 -0.04803005873371504
0.11473007193523979 0.3359760530284984 -0.05044388112172189
0.11878794750660275 0.3349619198055436 -0.05029301469341869
0.12211505002576074 0.3319503413216165 -0.04984042440069672
0.12540034437061162 0.32893890821518085 -0.04938783410797476
0.12943926050971716 0.3279248409189197 -0.049236967679671555
0.13390313525179776 0.3279093189086182 -0.049236967679671555
0.13840988034726207 0.32789364782736263 -0.049236967679671555
0.1433999927858689 0.32887631893025066 -0.04938783410797476
0.03324437065051267 0.35025948242526234 -0.05331114516141801
0.03695205999713937 0.34624655757219286 -0.052699057909065344
0.04045379539918096 0.3412343557016269 -0.0519339511238226
0.04384783644167267 0.33622252831131744 -0.05116884433857985
0.04713482413379667 0.3312110731723151 -0.05040373755333711
0.05047245416337635 0.3271994351081595 -0.049791650300984445
0.05389733313902385 0.3241874868285059 -0.049332582581521865
0.05744630470048532 0.32217515982379763 -0.0490265435157417
0.06096311953799757 0.3201629148335685 -0.048720499889565366
0.06444864791631902 0.31815077863419267 -0.048414456263389034
0.06790374551087354 0.3161387482502723 -0.0481084126372127
0.0713292593243856 0.3141268207365668 -0.04780236901103637
0.0749684338037731 0.31311417324466057 -0.04764934947814629
0.07885938774195185 0.3131006434234625 -0.04764934947814629
0.08250600634867307 0.3120879402439588 -0.04749632538486004
0.08643168101003461 0.31207428969011164 -0.04749632538486004
0.09038289132370796 0.3120605503424068 -0.04749632538486004
0.09497165344949544 0.3140446102117727 -0.04780236901103637
0.10059456419439275 0.3190250834027332 -0.04856747579627912
0.11473007193523979 0.3359760530284984 -0.05116884433857985
0.11878794750660275 0.3349619198055436 -0.05101582024529361
0.12248558192058996 0.33294904606036707 -0.050709776619117276
0.1257842405332722 0.3299375664830256 -0.05025071346005086
0.12983665256013527 0.32892348206068567 -0.05009769392716078
0.13390313525179776 0.3279093189086182 -0.04994466983387453
0.13840988034726207 0.32789364782736263 -0.04994466983387453
0.1433999927858689 0.32887631893025066 -0.05009769392716078
0.03334193367313354 0.3512591363451372 -0.05422198126478276
0.03706146664492379 0.3472461703088172 -0.0536012579089252
0.04045379539918096 0.3412343557016269 -0.052670177499878866
0.04384783644167267 0.33622252831131744 -0.05189427561742692
0.04713482413379667 0.3312110731723151 -0.05111837373497497
0.05047245416337635 0.3271994351081595 -0.0504976503791174
0.05389733313902385 0.3241874868285059 -0.05003210554985422
0.05744630470048532 0.32217515982379763 -0.049721748496665455
0.06096311953799757 0.3201629148335685 -0.04941138681873668
0.06444864791631902 0.31815077863419267 -0.04910102514080789
0.06790374551087354 0.3161387482502723 -0.04879066346287911
0.0713292593243856 0.3141268207365668 -0.04848030178495032
0.0749684338037731 0.31311417324466057 -0.048325123258355945
0.07885938774195185 0.3131006434234625 -0.048325123258355945
0.08250600634867307 0.3120879402439588 -0.04816994010702154
0.08615176535607469 0.3110752698559998 -0.04801476158042716
0.09038289132370796 0.3120605503424068 -0.04816994010702154
0.09497165344949544 0.3140446102117727 -0.04848030178495032
0.10059456419439275 0.3190250834027332 -0.04925620366740227
0.10770115054277456 0.32800042977083366 -0.05065282890571179
0.11438591970347659 0.3349772267585509 -0.05173909246609252
0.1191452403419772 0.33596070038232173 -0.05189427561742692
0.12248558192058996 0.33294904606036707 -0.051428730788163735
0.1257842405332722 0.3299375664830256 -0.05096319058364057
0.12983665256013527 0.32892348206068567 -0.05080801205704619
0.13390313525179776 0.3279093189086182 -0.05065282890571179
0.13840988034726207 0.32789364782736263 -0.05065282890571179
0.1433999927858689 0.32887631893025066 -0.05080801205704619
0.03334193367313354 0.3512591363451372 -0.05498029401408602
0.03706146664492379 0.3472461703088172 -0.054350928900252685
0.04045379539918096 0.3412343557016269 -0.05340688591862868
0.04384783644167267 0.33622252831131744 -0.052620181870900014
0.04713482413379667 0.3312110731723151 -0.051833477823171346
0.05047245416337635 0.3271994351081595 -0.05120411270933801
0.05389733313902385 0.3241874868285059 -0.050732086529400006
0.05744630470048532 0.32217515982379763 -0.05041740866160934
0.06096311953799757 0.3201629148335685 -0.05010272610469267
0.06444864791631902 0.31815077863419267 -0.049788043547776
0.06790374551087354 0.3161387482502723 -0.04947336099085933
0.0713292593243856 0.3141268207365668 -0.049158678433942664
0.0749684338037731 0.31311417324466057 -0.049001339500047335
0.07860455112465613 0.3121015065807574 -0.048843995877025995
0.08223867282304285 0.31108887665863605 -0.048686656943130666
0.08615176535607469 0.3110752698559998 -0.048686656943130666
0.09038289132370796 0.3120605503424068 -0.048843995877025995
0.09497165344949544 0.3140446102117727 -0.049158678433942664
0.10059456419439275 0.3190250834027332 -0.04994538248167133
0.10737004420577957 0.3270015879395457 -0.05120411270933801
0.11438591970347659 0.3349772267585509 -0.05246283824787868
0.1191452403419772 0.33596070038232173 -0.052620181870900014
0.12285612485827233 0.3339477805632215 -0.052305499313983345
0.1257842405332722 0.3299375664830256 -0.051676134200150006
0.12983665256013527 0.32892348206068567 -0.05151879526625468
0.13390313525179776 0.3279093189086182 -0.051361451643233344
0.13840988034726207 0.32789364782736263 -0.051361451643233344
0.14296137408271292 0.32787782114388003 -0.051361451643233344
0.03334193367313354 0.3512591363451372 -0.055739110181746855
0.03706146664492379 0.3472461703088172 -0.055101097572964955
0.04045379539918096 0.3412343557016269 -0.054144083413346845
0.04384783644167267 0.33622252831131744 -0.05334657002914684
0.04727995202060285 0.3322105616972462 -0.05270855742036495
0.05047245416337635 0.3271994351081595 -0.05191104403616495
0.05389733313902385 0.3241874868285059 -0.05143253220280116
0.05744630470048532 0.32217515982379763 -0.051113530651964945
0.06076978425161673 0.31916356413533503 -0.050635018818601156
0.06424313571638382 0.31715147027813684 -0.05031601251421021
0.06768600504976173 0.3151395122174453 -0.04999701096337399
0.0713292593243856 0.3141268207365668 -0.04983750543440116
0.0749684338037731 0.31311417324466057 -0.049678004658983047
0.07860455112465613 0.3121015065807574 -0.049518499130010205
0.08223867282304285 0.31108887665863605 -0.0493589983545921
0.08615176535607469 0.3110752698559998 -0.0493589983545921
0.0900903116974343 0.311061574544098 -0.0493589983545921
0.09466632368795067 0.31304567874887707 -0.049678004658983047
0.10027639370893926 0.3180261965902501 -0.05047551804318305
0.10670782166392474 0.3250038745087802 -0.051592037731773996
0.11438591970347659 0.3349772267585509 -0.053187064500174006
0.1191452403419772 0.33596070038232173 -0.05334657002914684
0.12285612485827233 0.3339477805632215 -0.053027563724755894
0.12616814813707733 0.33093625451358916 -0.05254905664494684
0.12983665256013527 0.32892348206068567 -0.052230050340555896
0.13390313525179776 0.3279093189086182 -0.052070544811583054
0.13840988034726207 0.32789364782736263 -0.052070544811583054
0.14296137408271292 0.32787782114388003 -0.052070544811583054
0.03334193367313354 0.3512591363451372 -0.05649843702587165
0.03706146664492379 0.3472461703088172 -0.05585177110245478
0.04045379539918096 0.3412343557016269 -0.0548817770353563
0.04384783644167267 0.33622252831131744 -0.05407344704009862
0.04727995202060285 0.3322105616972462 -0.053426781116681754
0.05047245416337635 0.3271994351081595 -0.05261845112142408
0.05389733313902385 0.3241874868285059 -0.052133449269848024
0.057265092225911376 0.32117576697151173 -0.051648452236298784
0.06076978425161673 0.31916356413533503 -0.051325119274590346
0.06424313571638382 0.31715147027813684 -0.051001786312881915
0.06768600504976173 0.3151395122174453 -0.050678458169200295
0.0713292593243856 0.3141268207365668 -0.050516789279332674
0.0749684338037731 0.31311417324466057 -0.050355125207491865
0.07860455112465613 0.3121015065807574 -0.05019345631762424
0.08223867282304285 0.31108887665863605 -0.050031792245783434
0.08615176535607469 0.3110752698559998 -0.050031792245783434
0.0900903116974343 0.311061574544098 -0.050031792245783434
0.09466632368795067 0.31304567874887707 -0.050355125207491865
0.10027639370893926 0.3180261965902501 -0.05116345520274954
0.1063767054590649 0.32400500290930273 -0.052133449269848024
0.1191452403419772 0.33596070038232173 -0.05407344704009862
0.12322665675310152 0.3349464853019721 -0.053911778150230995
0.12655204429973793 0.3319349127814339 -0.053426781116681754
0.12983665256013527 0.32892348206068567 -0.05294178408313251
0.13390313525179776 0.3279093189086182 -0.05278011519326489
0.13840988034726207 0.32789364782736263 -0.05278011519326489
0.14296137408271292 0.32787782114388003 -0.05278011519326489
0.033439499603396504 0.3522588200574041 -0.057422115549869
0.03706146664492379 0.3472461703088172 -0.05660295668276398
0.04045379539918096 0.3412343557016269 -0.05561997385430658
0.04384783644167267 0.33622252831131744 -0.05480081986974445
0.04727995202060285 0.3322105616972462 -0.05414549472907759
0.05047245416337635 0.3271994351081595 -0.053326340744515456
0.05389733313902385 0.3241874868285059 -0.052834844447743876
0.057265092225911376 0.32117576697151173 -0.05234335303351517
0.06076978425161673 0.31916356413533503 -0.05201569046318174
0.06424313571638382 0.31715147027813684 -0.051688027892848314
0.06768600504976173 0.3151395122174453 -0.051360370205057765
0.0713292593243856 0.3141268207365668 -0.05119653647861961
0.0749684338037731 0.31311417324466057 -0.05103270763472434
0.07860455112465613 0.3121015065807574 -0.050868873908286184
0.08223867282304285 0.31108887665863605 -0.050705045064390906
0.08587184135987082 0.3100762202483935 -0.05054121133795275
0.0900903116974343 0.311061574544098 -0.050705045064390906
0.09466632368795067 0.31304567874887707 -0.05103270763472434
0.09995821374114433 0.31702728000823693 -0.051688027892848314
0.10604559912206993 0.3230061610780148 -0.0526710156038486
0.1191452403419772 0.33596070038232173 -0.05480081986974445
0.12322665675310152 0.3349464853019721 -0.05463698614330629
0.12655204429973793 0.3319349127814339 -0.05414549472907759
0.1302340327675478 0.3299220934411302 -0.05381783215874416
0.13390313525179776 0.3279093189086182 -0.053490169588410734
0.13840988034726207 0.32789364782736263 -0.053490169588410734
0.14296137408271292 0.32787782114388003 -0.053490169588410734
0.03706146664492379 0.3472461703088172 -0.05735466152686809
0.04045379539918096 0.3412343557016269 -0.05635868095845355
0.04384783644167267 0.33622252831131744 -0.05552869550240691
0.04727995202060285 0.3322105616972462 -0.05486470515872818
0.05047245416337635 0.3271994351081595 -0.05403471970268155
0.05389733313902385 0.3241874868285059 -0.05353672447137073
0.057265092225911376 0.32117576697151173 -0.053038734187163455
0.06076978425161673 0.31916356413533503 -0.05270673901532409
0.06424313571638382 0.31715147027813684 -0.05237474384348473
0.06768600504976173 0.3151395122174453 -0.05204275361874891
0.07109922283974784 0.31312762746009276 -0.05171075844690955
0.07472602855872243 0.3121149931749612 -0.05154475838743809
0.07834972210195486 0.31110239951414664 -0.05137876327507018
0.08197133133015012 0.3100897832985149 -0.05121276321559873
0.08587184135987082 0.3100762202483935 -0.05121276321559873
0.0900903116974343 0.311061574544098 -0.05137876327507018
0.09436098482675276 0.3120467175151206 -0.05154475838743809
0.09964004325569083 0.3160283931957538 -0.05220874873111682
0.10571449278507491 0.3220073192467268 -0.05320473424663491
0.1235971996907839 0.3359452198048265 -0.05552869550240691
0.1269359404623985 0.3329335710492786 -0.05503070027109609
0.1302340327675478 0.3299220934411302 -0.05453270998688882
0.13431413690642927 0.3289079127263823 -0.05436671487452091
0.13840988034726207 0.32789364782736263 -0.054200714815049456
0.14296137408271292 0.32787782114388003 -0.054200714815049456
0.03706146664492379 0.3472461703088172 -0.05810689286696266
0.04045379539918096 0.3412343557016269 -0.05709790545494075
0.04384783644167267 0.33622252831131744 -0.05625708094101935
0.04727995202060285 0.3322105616972462 -0.055584419325198454
0.05047245416337635 0.3271994351081595 -0.05474359481127705
0.05389733313902385 0.3241874868285059 -0.05423909609355667
0.057265092225911376 0.32117576697151173 -0.05373460238754572
0.06076978425161673 0.31916356413533503 -0.05339827157963527
0.06424313571638382 0.31715147027813684 -0.053061940771724825
0.06768600504976173 0.3151395122174453 -0.052725614975523805
0.07109922283974784 0.31312762746009276 -0.05238928416761336
0.07472602855872243 0.3121149931749612 -0.05222111625780342
0.07834972210195486 0.31110239951414664 -0.05205295335970291
0.08197133133015012 0.3100897832985149 -0.05188478544989298
0.08587184135987082 0.3100762202483935 -0.05188478544989298
0.08979772335149605 0.31006256897360707 -0.05188478544989298
0.09436098482675276 0.3120467175151206 -0.05222111625780342
0.09964004325569083 0.3160283931957538 -0.052893777873624315
0.1235971996907839 0.3359452198048265 -0.05625708094101935
0.1269359404623985 0.3329335710492786 -0.055752582223298965
0.1302340327675478 0.3299220934411302 -0.05524808851728801
0.13431413690642927 0.3289079127263823 -0.0550799256191875
0.13840988034726207 0.32789364782736263 -0.05491175770937756
0.14296137408271292 0.32787782114388003 -0.05491175770937756
0.03353706262601738 0.353258473977279 -0.05988166651578095
0.03706146664492379 0.3472461703088172 -0.05885965795475099
0.04045379539918096 0.3412343557016269 -0.05783765447008218
0.04384783644167267 0.33622252831131744 -0.056985983207404445
0.04727995202060285 0.3322105616972462 -0.05630464416671781
0.05047245416337635 0.3271994351081595 -0.055452972904040075
0.05389733313902385 0.3241874868285059 -0.05494196608534452
0.057265092225911376 0.32117576697151173 -0.05443096434301011
0.06076978425161673 0.31916356413533503 -0.05409029482266679
0.06424313571638382 0.31715147027813684 -0.053749625302323474
0.06768600504976173 0.3151395122174453 -0.0534089608583413
0.07109922283974784 0.31312762746009276 -0.05306829133799798
0.07472602855872243 0.3121149931749612 -0.05289795403964574
0.07834972210195486 0.31110239951414664 -0.052727621817654655
0.08197133133015012 0.3100897832985149 -0.05255728451930242
0.08587184135987082 0.3100762202483935 -0.05255728451930242
0.08979772335149605 0.31006256897360707 -0.05255728451930242
0.09436098482675276 0.3120467175151206 -0.05289795403964574
0.09932187277023735 0.3150295063832707 -0.0534089608583413
0.12396773158561308 0.3369439245435771 -0.05715631542939553
0.1273198480662036 0.3339322590798422 -0.056645313687061126
0.1306314248179659 0.33092073458289617 -0.05613431194472672
0.13431413690642927 0.3289079127263823 -0.055793642424383394
0.13840988034726207 0.32789364782736263 -0.05562330512603116
0.14296137408271292 0.32787782114388003 -0.05562330512603116
0.033634625648638256 0.3542581278971539 -0.06082050121987435
0.037170876553322366 0.3482458128366062 -0.05978547230778747
0.04057507513433302 0.3422339271525533 -0.058750438254641255
0.04384783644167267 0.33622252831131744 -0.057715409342554376
0.04727995202060285 0.3322105616972462 -0.0570253866404569
0.05047245416337635 0.3271994351081595 -0.05616286083336472
0.05389733313902385 0.3241874868285059 -0.05564534123626195
0.057265092225911376 0.32117576697151173 -0.055127826780218506
0.06076978425161673 0.31916356413533503 -0.05478281542916977
0.06424313571638382 0.31715147027813684 -0.05443780407812103
0.06768600504976173 0.3151395122174453 -0.05409279786813163
0.07109922283974784 0.31312762746009276 -0.05374778651708289
0.07472602855872243 0.3121149931749612 -0.053575278271028856
0.07834972210195486 0.31110239951414664 -0.05340277516603415
0.08197133133015012 0.3100897832985149 -0.05323026691998012
0.08587184135987082 0.3100762202483935 -0.05323026691998012
0.08979772335149605 0.31006256897360707 -0.05323026691998012
0.09405565506520798 0.31104778605222494 -0.05340277516603415
0.0990036928024424 0.3140305898012575 -0.053920289622077594
0.12396773158561308 0.3369439245435771 -0.057887912447549074
0.12770374422886427 0.33493091734768693 -0.057542901096500336
0.1306314248179659 0.33092073458289617 -0.056852883535462195
0.13431413690642927 0.3289079127263823 -0.05650787218441346
0.13840988034726207 0.32789364782736263 -0.056335363938359424
0.14296137408271292 0.32787782114388003 -0.056335363938359424
0.033634625648638256 0.3542581278971539 -0.0615895630737823
0.037170876553322366 0.3482458128366062 -0.06054149925342723
0.04057507513433302 0.3422339271525533 -0.059493430227267545
0.04384783644167267 0.33622252831131744 -0.05844536640691248
0.04727995202060285 0.3322105616972462 -0.057746653722806025
0.05047245416337635 0.3271994351081595 -0.056873265470575265
0.05389733313902385 0.3241874868285059 -0.05634922835459311
0.057265092225911376 0.32117576697151173 -0.05582519644441558
0.060576454726978875 0.31816424321956904 -0.05530116453423805
0.06403762964108575 0.31615219170328673 -0.05495180819218482
0.06768600504976173 0.3151395122174453 -0.05477713262406052
0.07109922283974784 0.31312762746009276 -0.05442777628200729
0.07472602855872243 0.3121149931749612 -0.054253095508078365
0.07834972210195486 0.31110239951414664 -0.05407841993995406
0.08197133133015012 0.3100897832985149 -0.05390373916602514
0.08587184135987082 0.3100762202483935 -0.05390373916602514
0.08979772335149605 0.31006256897360707 -0.05390373916602514
0.09405565506520798 0.31104778605222494 -0.05407841993995406
0.0990036928024424 0.3140305898012575 -0.05460245185013159
0.12396773158561308 0.3369439245435771 -0.058620041975036785
0.12808765183266935 0.3359296053782505 -0.05844536640691248
0.1310288050253785 0.3319193459633407 -0.057746653722806025
0.13431413690642927 0.3289079127263823 -0.057222621812628494
0.13840988034726207 0.32789364782736263 -0.05704794103869957
0.14296137408271292 0.32787782114388003 -0.05704794103869957
0.033634625648638256 0.3542581278971539 -0.062359191758968466
0.03728028320110677 0.3492454255732306 -0.061474933055515296
0.04057507513433302 0.3422339271525533 -0.06023696981656135
0.04398102211474772 0.3372220583623163 -0.059352711113108185
0.04727995202060285 0.3322105616972462 -0.05846845240965502
0.05047245416337635 0.3271994351081595 -0.05758419370620187
0.05389733313902385 0.3241874868285059 -0.05705363426765187
0.057265092225911376 0.32117576697151173 -0.0565230800996995
0.060576454726978875 0.31816424321956904 -0.055992525931747125
0.06403762964108575 0.31615219170328673 -0.05563882139624634
0.06746825809939495 0.3141402464046805 -0.055285116860745546
0.07109922283974784 0.31312762746009276 -0.05510826722829396
0.0744836305377887 0.3111158428826444 -0.05475456269279318
0.07834972210195486 0.31110239951414664 -0.05475456269279318
0.08197133133015012 0.3100897832985149 -0.054577707789743975
0.08559192570591093 0.30907720041428166 -0.05440085815729239
0.0895051437252224 0.30906359317529825 -0.05440085815729239
0.09405565506520798 0.31104778605222494 -0.05475456269279318
0.0990036928024424 0.3140305898012575 -0.055285116860745546
0.12808765183266935 0.3359296053782505 -0.0591758614806566
0.13142618523279104 0.3329179573437852 -0.05864530204210661
0.13472512631246428 0.32990647678423524 -0.058114747874154236
0.13840988034726207 0.32789364782736263 -0.05776104333865345
0.14296137408271292 0.32787782114388003 -0.05776104333865345
0.033634625648638256 0.3542581278971539 -0.06312939475599708
0.03728028320110677 0.3492454255732306 -0.062234257489580114
0.04057507513433302 0.3422339271525533 -0.060981064249508575
0.04398102211474772 0.3372220583623163 -0.060085926983091606
0.04727995202060285 0.3322105616972462 -0.059190789716674644
0.05047245416337635 0.3271994351081595 -0.05829565245025768
0.05389733313902385 0.3241874868285059 -0.057758565822056324
0.057265092225911376 0.32117576697151173 -0.057221484529293945
0.060576454726978875 0.31816424321956904 -0.05668440323653156
0.06403762964108575 0.31615219170328673 -0.056326347262876976
0.06746825809939495 0.3141402464046805 -0.0559682912892224
0.07109922283974784 0.31312762746009276 -0.05578926597011459
0.0744836305377887 0.3111158428826444 -0.055431209996460014
0.07809488548465914 0.3101032626714416 -0.05525217934191324
0.08170399780451992 0.3090907197131921 -0.05507315402280544
0.08559192570591093 0.30907720041428166 -0.05507315402280544
0.0895051437252224 0.30906359317529825 -0.05507315402280544
0.09375031620401006 0.31004882481846846 -0.05525217934191324
0.09868552231698892 0.31303170298877436 -0.05578926597011459
0.12808765183266935 0.3359296053782505 -0.059906901663983804
0.13142618523279104 0.3329179573437852 -0.059369815035782446
0.13472512631246428 0.32990647678423524 -0.05883273374302007
0.13883462231061275 0.3288921938666325 -0.05865370842391226
0.14296137408271292 0.32787782114388003 -0.058474677769365484
0.033634625648638256 0.3542581278971539 -0.06390017956682595
0.03728028320110677 0.3492454255732306 -0.06299415551974402
0.04069635848394939 0.34323352839341387 -0.061906928823377436
0.04398102211474772 0.3372220583623163 -0.060819696726681555
0.04727995202060285 0.3322105616972462 -0.05991367267959963
0.05047245416337635 0.3271994351081595 -0.05900764863251771
0.05372819808756736 0.32318808178249797 -0.05828282723472045
0.05708388515179861 0.3201764039029496 -0.057739213886537154
0.06076978425161673 0.31916356413533503 -0.05755800583692319
0.06403762964108575 0.31615219170328673 -0.05701439248873989
0.06746825809939495 0.3141402464046805 -0.056651981789841266
0.07109922283974784 0.31312762746009276 -0.0564707791405566
0.0744836305377887 0.3111158428826444 -0.05610836844165797
0.07809488548465914 0.3101032626714416 -0.05592716039204401
0.08170399780451992 0.3090907197131921 -0.055745957742759346
0.08559192570591093 0.30907720041428166 -0.055745957742759346
0.0895051437252224 0.30906359317529825 -0.055745957742759346
0.09375031620401006 0.31004882481846846 -0.05592716039204401
0.09868552231698892 0.31303170298877436 -0.0564707791405566
0.12847154799532995 0.33692826364609524 -0.060819696726681555
0.13182357728320915 0.3339165984855512 -0.060276083378498255
0.13472512631246428 0.32990647678423524 -0.059551261980701
0.13883462231061275 0.3288921938666325 -0.059370059331416335
0.1433999927858689 0.32887631893025066 -0.059370059331416335
0.033634625648638256 0.3542581278971539 -0.06467155371510978
0.03728028320110677 0.3492454255732306 -0.06375463456339554
0.04069635848394939 0.34323352839341387 -0.06265433376744614
0.04398102211474772 0.3372220583623163 -0.061554027506227495
0.04727995202060285 0.3322105616972462 -0.060637108354513254
0.05047245416337635 0.3271994351081595 -0.05972018920279901
0.05372819808756736 0.32318808178249797 -0.058986651695319914
0.05708388515179861 0.3201764039029496 -0.05843650129734521
0.060576454726978875 0.31816424321956904 -0.058069732543605666
0.06403762964108575 0.31615219170328673 -0.05770296378986612
0.06746825809939495 0.3141402464046805 -0.057336195036126573
0.07109922283974784 0.31312762746009276 -0.05715281339189142
0.0744836305377887 0.3111158428826444 -0.05678604463815187
0.07809488548465914 0.3101032626714416 -0.056602657528647474
0.08170399780451992 0.3090907197131921 -0.056419275884412326
0.08531201005195102 0.30807818058016984 -0.05623589424017717
0.08921256409894876 0.30806461737698937 -0.05623589424017717
0.09375031620401006 0.31004882481846846 -0.056602657528647474
0.09836734234919398 0.3120327864067612 -0.05696942628238702
0.12847154799532995 0.33692826364609524 -0.061554027506227495
0.13182357728320915 0.3339165984855512 -0.0610038771082528
0.1351361279670958 0.3309050706019993 -0.0604537267102781
0.13883462231061275 0.3288921938666325 -0.06008695795653855
0.1433999927858689 0.32887631893025066 -0.06008695795653855
0.03728028320110677 0.3492454255732306 -0.06451570205961467
0.04069635848394939 0.34323352839341387 -0.06340231704744936
0.04398102211474772 0.3372220583623163 -0.0622889265050246
0.04727995202060285 0.3322105616972462 -0.0613611038181337
0.05047245416337635 0.3271994351081595 -0.06043328113124279
0.05372819808756736 0.32318808178249797 -0.05969102076962629
0.05708388515179861 0.3201764039029496 -0.05913432826354364
0.060576454726978875 0.31816424321956904 -0.058763198082735384
0.06403762964108575 0.31615219170328673 -0.058392067901927136
0.06746825809939495 0.3141402464046805 -0.05802093772111888
0.07086917949940037 0.31212840440495515 -0.057649807540310634
0.0744836305377887 0.3111158428826444 -0.05746424521503623
0.07809488548465914 0.3101032626714416 -0.057278677359502386
0.08170399780451992 0.3090907197131921 -0.05709311503422798
0.08531201005195102 0.30807818058016984 -0.05690755270895358
0.08921256409894876 0.30806461737698937 -0.05690755270895358
0.09375031620401006 0.31004882481846846 -0.057278677359502386
0.09836734234919398 0.3120327864067612 -0.057649807540310634
0.12847154799532995 0.33692826364609524 -0.0622889265050246
0.13222095749062177 0.3349152098659957 -0.06191779632421635
0.13554711737313083 0.3319036346598523 -0.0613611038181337
0.13883462231061275 0.3288921938666325 -0.06080441131205105
0.1433999927858689 0.32887631893025066 -0.06080441131205105
0.03728028320110677 0.3492454255732306 -0.06527736546947563
0.04069635848394939 0.34323352839341387 -0.06415088599619106
0.04398102211474772 0.3372220583623163 -0.06302440092760597
0.04727995202060285 0.3322105616972462 -0.06208566616810199
0.05047245416337635 0.3271994351081595 -0.061146931408598004
0.05372819808756736 0.32318808178249797 -0.060395941362874614
0.05708388515179861 0.3201764039029496 -0.05983270162623233
0.060576454726978875 0.31816424321956904 -0.05945720660337063
0.06403762964108575 0.31615219170328673 -0.059081711580508935
0.06746825809939495 0.3141402464046805 -0.05870621655764724
0.07086917949940037 0.31212840440495515 -0.058330721534785544
0.0744836305377887 0.3111158428826444 -0.05814297682100496
0.07809488548465914 0.3101032626714416 -0.05795522651192384
0.08170399780451992 0.3090907197131921 -0.057767481798143255
0.08503208605574715 0.30707913097256356 -0.05739198677528156
0.08921256409894876 0.30806461737698937 -0.05757973708436267
0.0934449864424653 0.3090498933555728 -0.057767481798143255
0.09836734234919398 0.3120327864067612 -0.058330721534785544
0.13222095749062177 0.3349152098659957 -0.06264890590474427
0.13554711737313083 0.3319036346598523 -0.06208566616810199
0.13925935161588077 0.3298907101474151 -0.06171017114524029
0.1433999927858689 0.32887631893025066 -0.061522426431459706
0.03728028320110677 0.3492454255732306 -0.0660396322763512
0.04069635848394939 0.34323352839341387 -0.06490004796839045
0.04398102211474772 0.3372220583623163 -0.06376045800003656
0.04727995202060285 0.3322105616972462 -0.06281080252327155
0.05047245416337635 0.3271994351081595 -0.06186114704650654
0.05372819808756736 0.32318808178249797 -0.06110142040093727
0.05708388515179861 0.3201764039029496 -0.060531628246956896
0.060576454726978875 0.31816424321956904 -0.06015176492417226
0.06403762964108575 0.31615219170328673 -0.059771901601387636
0.06746825809939495 0.3141402464046805 -0.059392038278603
0.07086917949940037 0.31212840440495515 -0.059012174955818376
0.0744836305377887 0.3111158428826444 -0.058822246124622626
0.07784005646195788 0.30910415560483084 -0.05844238280183799
0.0814366642788897 0.3080916561278693 -0.05825245397064224
0.08503208605574715 0.30707913097256356 -0.058062519479053366
0.08891997575301051 0.30706561180649844 -0.058062519479053366
0.0934449864424653 0.3090498933555728 -0.05844238280183799
0.09836734234919398 0.3120327864067612 -0.059012174955818376
0.13261834954103982 0.3359138510077617 -0.0635705291688408
0.13595810677916584 0.33290219871770527 -0.0630007313544673
