X	Y	Z
0.1379194187418737	1.9570001363754272	-0.572730377369023
0.18243590378250976	1.939000129699707	-0.5674625440028365
0.2291303021226961	1.9450000524520874	-0.5692184651999194
0.2780655977866813	1.9630000591278076	-0.574486298566106
0.32121670272504405	1.939000129699707	-0.5674625440028365
0.36926979790579195	1.9450000524520874	-0.5692184651999194
0.42339226008426417	1.9760000705718994	-0.5782908468243223
0.4902748430932868	2.052000045776367	-0.6005327944204573
0.5889385255944191	2.2320001125335693	-0.6532111280823232
0.6568531966618874	2.2720000743865967	-0.6649174089460849
0.7049263341366446	2.240000009536743	-0.6555523563451003
0.7740050742408585	2.2720000743865967	-0.6649174089460849
0.8398371059586462	2.2880001068115234	-0.6695999352465772
0.9012672102811662	2.2880001068115234	-0.6695999352465772
0.953732920585607	2.264000177383423	-0.6625761806833077
1.016888391484947	2.264000177383423	-0.6625761806833077
1.1047934614235573	2.313000202178955	-0.6769163956738972
1.1681289487461348	2.305000066757202	-0.6745750976361822
1.2551465927727403	2.3390002250671387	-0.68452549219033
1.3363555172854462	2.3560001850128174	-0.6895006545799349
1.4211614765980358	2.374000072479248	-0.6947684530586526
1.5149181947750874	2.4010000228881836	-0.702670185664198
1.576908627990384	2.374000072479248	-0.6947684530586526
1.6710109698632	2.392000198364258	-0.7000363213123081
1.7757137873920994	2.4190001487731934	-0.7079380539178535
1.864562918501161	2.4190001487731934	-0.7079380539178535
1.9639641137102966	2.4280002117156982	-0.7105719880446812
2.060004767407942	2.4280002117156982	-0.7105719880446812
2.167952065911962	2.437000036239624	-0.7132058523965712
-0.0	0.0	-0.0
-0.0	0.0	-0.0
-0.0	0.0	-0.0
-0.8129257630991729	1.0049999952316284	-0.30566170129141657
-0.7792778272088746	1.0110000371932983	-0.3074865600401982
-0.7546232559284864	1.027999997138977	-0.3126569448198364
-0.7453882147050429	1.0670000314712524	-0.32451845417405234
-0.7426216682358977	1.1180000305175781	-0.3400296447693993
-0.0	0.0	-0.0
-0.0	0.0	-0.0
-0.9648305104273678	1.7010000944137573	-0.5173438658927931
-1.0099126856012133	1.8820000886917114	-0.572393384745761
-0.9983575423230319	1.970000147819519	-0.5991578105312073
-0.9863373807348784	2.065000057220459	-0.6280511777628452
-1.0465326552054062	2.330000162124634	-0.7086485740730266
-0.9781659423837337	2.322000026702881	-0.7062154049036963
-0.8918133866654181	2.264000177383423	-0.6885752728621579
-0.8369006505244393	2.2800002098083496	-0.693441538687954
-0.7825218876375842	2.2970001697540283	-0.6986119234675923
-0.7175143673608171	2.2800002098083496	-0.693441538687954
-0.6591660991061908	2.2800002098083496	-0.693441538687954
-0.5952711789721609	2.25600004196167	-0.6861421036928276
-0.5332814232674989	2.2320001125335693	-0.6788427412105656
-0.48852955837393464	2.2800002098083496	-0.693441538687954
-0.4267961628970001	2.248000144958496	-0.6837090070363617
-0.3763818069463163	2.2720000743865967	-0.6910083695186237
-0.31177912465353524	2.201000213623047	-0.6694144010256801
-0.25669663072718285	2.17900013923645	-0.6627232764511023
-0.2100035742833023	2.2320001125335693	-0.6788427412105656
-0.15673622669023202	2.2240002155303955	-0.6764096445540998
-0.10369080488369371	2.2090001106262207	-0.6718474976821458
-0.05235638989414847	2.2320001125335693	-0.6788427412105656
-0.0	2.1560001373291016	-0.6557280329226824
0.046632840371528726	1.9880000352859497	-0.6046323142646877
0.09129860155616305	1.9450000524520874	-0.5915542565822388
0.13629849555686122	1.9340001344680786	-0.5882087305513822
0.18140093648350736	1.9280000925064087	-0.5863838718026005
0.22783445921111198	1.9340001344680786	-0.5882087305513822
0.2780655977866813	1.9630000591278076	-0.5970287965721514
0.32221065593505394	1.9450000524520874	-0.5915542565822388
0.3715480850244158	1.9570001363754272	-0.5952039740798021
0.4246778730579604	1.9820001125335693	-0.6028074917723383
0.4967258158783576	2.0789999961853027	-0.6323091331680927
0.5849805779149279	2.2170000076293945	-0.6742805943386116
0.6545403631462814	2.264000177383423	-0.6885752728621579
0.7049263341366446	2.240000009536743	-0.6812758378670315
0.7685543234136364	2.25600004196167	-0.6861421036928276
0.828091109193182	2.25600004196167	-0.6861421036928276
0.8855108062830607	2.248000144958496	-0.6837090070363617
0.9571029579245789	2.2720000743865967	-0.6910083695186237
1.0317105233451764	2.2970001697540283	-0.6986119234675923
1.1090921844753867	2.322000026702881	-0.7062154049036963
1.1681289487461348	2.305000066757202	-0.701045020124058
1.2551465927727403	2.3390002250671387	-0.711385862196199
1.341460340805264	2.365000009536743	-0.7192934625861451
1.4534878941510176	2.4280002117156982	-0.7384544069354875
1.549620652521882	2.4560000896453857	-0.7469703177459823
1.6067995321191444	2.4190001487731934	-0.735717118812315
1.7157202138147474	2.4560000896453857	-0.7469703177459823
1.796267638664187	2.447000026702881	-0.7442330296228099
1.8784372139302545	2.437000036239624	-0.7411916225457954
1.97124390401237	2.437000036239624	-0.7411916225457954
2.0676405498661405	2.437000036239624	-0.7411916225457954
2.151939389408582	2.4190001487731934	-0.735717118812315
-0.0	0.0	-0.0
-0.0	0.0	-0.0
-0.0	0.0	-0.0
-0.7975570704834666	0.9860000610351562	-0.3112788316697186
-0.7661742289790839	0.9940000176429749	-0.3138044067124583
-0.7414100033193717	1.0099999904632568	-0.3188555756150402
-0.7404981541599671	1.0600000619888306	-0.3346405278305026
-0.734650797420631	1.1060000658035278	-0.34916266429894144
-0.0	0.0	-0.0
-0.0	0.0	-0.0
-0.9727714672219984	1.715000033378601	-0.541423097016
-0.9922043384443409	1.849000096321106	-0.5837267283084979
-0.982647339490651	1.939000129699707	-0.6121396121889663
-0.9739185944085011	2.0390000343322754	-0.6437094413514812
-1.050575084009208	2.3390002250671387	-0.7384190793758457
-0.9781659423837337	2.322000026702881	-0.7330521406766493
-0.8949646298988089	2.2720000743865967	-0.7172672260953918
-0.8398371059586462	2.2880001068115234	-0.7223184138150761
-0.7794558250680806	2.2880001068115234	-0.7223184138150761
-0.7149967307039229	2.2720000743865967	-0.7172672260953918
-0.6568531966618874	2.2720000743865967	-0.7172672260953918
-0.5952711789721609	2.25600004196167	-0.7122160383757075
-0.5332814232674989	2.2320001125335693	-0.7046392944303859
-0.48167298990442986	2.248000144958496	-0.7096904821500702
-0.422239633924934	2.2240002155303955	-0.7021137382047486
-0.3737312255562961	2.25600004196167	-0.7122160383757075
-0.31291233712190764	2.2090001106262207	-0.6973782261961664
-0.25752126058790437	2.186000108718872	-0.690117157961947
-0.20925088302888395	2.2240002155303955	-0.7021137382047486
-0.15730001875348454	2.2320001125335693	-0.7046392944303859
-0.10439491211454975	2.2240002155303955	-0.7021137382047486
-0.05235638989414847	2.2320001125335693	-0.7046392944303859
-0.0	2.17900013923645	-0.687907277447412
0.047383468304359404	2.0199999809265137	-0.6377111512300804
0.09101696425952302	1.939000129699707	-0.6121396121889663
0.13587564310815722	1.9280000925064087	-0.6086669159274076
0.18196546614043924	1.9340001344680786	-0.6105611207308406
0.2291303021226961	1.9450000524520874	-0.6140337793581941
0.27636576219772363	1.9510000944137573	-0.6159279841616271
0.32121670272504405	1.939000129699707	-0.6121396121889663
0.3740162143145311	1.970000147819519	-0.6219262742830278
0.42339226008426417	1.9760000705718994	-0.6238204414522558
0.49839834304878716	2.0860002040863037	-0.6585473287994321
0.5728429555770804	2.1710000038146973	-0.6853816459533648
0.6476017247420686	2.240000009536743	-0.7071648506560231
0.7124791690771779	2.264000177383423	-0.7147416698697545
0.7685543234136364	2.25600004196167	-0.7122160383757075
0.819281655376243	2.2320001125335693	-0.7046392944303859
0.8760569826673126	2.2240002155303955	-0.7021137382047486
0.9571029579245789	2.2720000743865967	-0.7172672260953918
1.0276680945413748	2.2880001068115234	-0.7223184138150761
1.092852285685274	2.2880001068115234	-0.7223184138150761
1.1595137015596089	2.2880001068115234	-0.7223184138150761
1.236901539865477	2.305000066757202	-0.7276852772458627
1.3267129075727837	2.3390002250671387	-0.7384190793758457
1.4534878941510176	2.4280002117156982	-0.766516249911007
1.5559301766184883	2.4660000801086426	-0.7785127548853986
1.6127777446183846	2.4280002117156982	-0.766516249911007
1.7024470971608583	2.437000036239624	-0.7693574818477463
1.7889269524933322	2.437000036239624	-0.7693574818477463
1.8784372139302545	2.437000036239624	-0.7693574818477463
1.9866126930542485	2.4560000896453857	-0.7753557719691472
2.076124909928773	2.447000026702881	-0.7725144647639979
2.151939389408582	2.4190001487731934	-0.7636749427058577
-0.0	0.0	-0.0
-0.0	0.0	-0.0
-0.0	0.0	-0.0
-0.7902771355421347	0.9770000576972961	-0.31980474751532745
-0.7600078703502422	0.9860000610351562	-0.3227507491787104
-0.7421441069396099	1.0110000371932983	-0.3309340762933347
-0.7342108620783572	1.0509999990463257	-0.3440273996767337
-0.7313295946489597	1.1010000705718994	-0.36039409292716407
-0.0	0.0	-0.0
-1.2206184545516405	2.0390000343322754	-0.6674328072203777
-0.9858173827707248	1.7380000352859497	-0.5689054551094646
-0.9954240611891162	1.8550001382827759	-0.6072034962440335
-0.9770727357984033	1.9280000925064087	-0.631098819222973
-0.9705750925328598	2.0320000648498535	-0.6651414834325192
-1.0465326552054062	2.330000162124634	-0.7626868675066228
-0.9815360801589378	2.330000162124634	-0.7626868675066228
-0.8918133866654181	2.264000177383423	-0.7410828683155418
-0.8310276521417072	2.264000177383423	-0.7410828683155418
-0.7740050742408585	2.2720000743865967	-0.7437015017752763
-0.7074439707935387	2.248000144958496	-0.7358455233537096
-0.6476017247420686	2.240000009536743	-0.7332268118516118
-0.5973821053710375	2.264000177383423	-0.7410828683155418
-0.5371042367234561	2.248000144958496	-0.7358455233537096
-0.4765305890949575	2.2240002155303955	-0.7279895449321429
-0.41939177502665426	2.2090001106262207	-0.7230795096421866
-0.36594516987706593	2.2090001106262207	-0.7230795096421866
-0.31177912465353524	2.201000213623047	-0.7204608761824521
-0.26117319684064955	2.2170000076293945	-0.725698143101921
-0.2064282347442246	2.194000005722046	-0.7181694743522303
-0.15673622669023202	2.2240002155303955	-0.7279895449321429
-0.10439491211454975	2.2240002155303955	-0.7279895449321429
-0.05235638989414847	2.2320001125335693	-0.7306081783918773
-0.0	2.2170000076293945	-0.725698143101921
0.047969899610118785	2.0450000762939453	-0.6693968213363602
0.09214352463748793	1.9630000591278076	-0.642555477183447
0.1379194187418737	1.9570001363754272	-0.6405915020886461
0.18648166974753988	1.9820001125335693	-0.6487748292032706
0.2334890860385833	1.9820001125335693	-0.6487748292032706
0.27990709337738506	1.9760000705718994	-0.646810815087288
0.3303280490992843	1.9940000772476196	-0.6527028184140539
0.3810408952093032	2.007000207901001	-0.6569581953390765
0.43003457675325707	2.007000207901001	-0.6569581953390765
0.5000708132549726	2.0930001735687256	-0.6851088562218569
0.5728429555770804	2.1710000038146973	-0.7106408056025396
0.6386394087082236	2.2090001106262207	-0.7230795096421866
0.7049263341366446	2.240000009536743	-0.7332268118516118
0.7552681335014734	2.2170000076293945	-0.725698143101921
0.8108392366100002	2.2090001106262207	-0.7230795096421866
0.8760569826673126	2.2240002155303955	-0.7279895449321429
0.940252570357255	2.2320001125335693	-0.7306081783918773
1.002515382685014	2.2320001125335693	-0.7306081783918773
1.073746495607614	2.248000144958496	-0.7358455233537096
1.1554595102339045	2.2800002098083496	-0.7463202132773741
1.236901539865477	2.305000066757202	-0.7545035013708168
1.302889901954614	2.2970001697540283	-0.7518848679110823
1.4157737165515554	2.365000009536743	-0.7741434864459152
1.5035611115735643	2.383000135421753	-0.7800355287938627
1.5536602877724057	2.3390002250671387	-0.7656328886805965
1.6339860829746014	2.3390002250671387	-0.7656328886805965
1.710381627966764	2.330000162124634	-0.7626868675066228
1.8028990565535372	2.3390002250671387	-0.7656328886805965
1.9275643907905513	2.383000135421753	-0.7800355287938627
2.037096813184045	2.4010000228881836	-0.785927493099447
2.1199138243049633	2.383000135421753	-0.7800355287938627
-0.0	0.0	-0.0
-0.0	0.0	-0.0
-0.0	0.0	-0.0
-0.7846149424930606	0.9700000286102295	-0.32887734580970784
-0.7522998876067892	0.9760000705718994	-0.3309116528374387
-0.7436122266722045	1.0130000114440918	-0.3434564383944011
-0.7307179497922176	1.0460000038146973	-0.35464504621138737
-0.7300011293770353	1.099000096321106	-0.3726146639815542
-0.0	0.0	-0.0
-1.2361829995353166	2.065000057220459	-0.7001357916335192
-0.991489514086072	1.7480000257492065	-0.5926573113274622
-1.0072296046371325	1.877000093460083	-0.6363946294993085
-0.9887286868921437	1.9510000944137573	-0.661484241031
-0.9705750925328598	2.0320000648498535	-0.688947183816533
-1.0276680945413748	2.2880001068115234	-0.775743690872471
-0.9676345003722724	2.2970001697540283	-0.7787951514140672
-0.8855108062830607	2.248000144958496	-0.7621817518016432
-0.819281655376243	2.2320001125335693	-0.7567569600062054
-0.7631035725864141	2.240000009536743	-0.7594693154861577
-0.7024087725098996	2.2320001125335693	-0.7567569600062054
-0.6429760577108565	2.2240002155303955	-0.7540446045262531
-0.5931603154827283	2.248000144958496	-0.7621817518016432
-0.5313700450216425	2.2240002155303955	-0.7540446045262531
-0.47160244008599705	2.201000213623047	-0.7462464814769737
-0.41502508822607964	2.186000108718872	-0.7411607139076467
-0.3609753445820258	2.17900013923645	-0.7387873826538052
-0.30752949346514336	2.1710000038146973	-0.7360749463383197
-0.25669663072718285	2.17900013923645	-0.7387873826538052
-0.20087706383812154	2.134999990463257	-0.723869185007468
-0.15356485012748133	2.17900013923645	-0.7387873826538052
-0.10298669765283766	2.194000005722046	-0.743873069387599
-0.051113160894857054	2.17900013923645	-0.7387873826538052
-0.0	2.17900013923645	-0.7387873826538052
0.04752421226515153	2.0260000228881836	-0.6869128767888022
0.09359867025508645	1.9940000772476196	-0.6760633336156933
0.1418660051909643	2.013000011444092	-0.6825052385072298
0.1924091862808521	2.0450000762939453	-0.6933548220981054
0.24091078287192536	2.0450000762939453	-0.6933548220981054
0.28968117756509004	2.0450000762939453	-0.6933548220981054
0.34109600390520467	2.059000015258789	-0.6981014846057885
0.38350897923423694	2.0199999809265137	-0.6848785697610714
0.4328200034158489	2.0199999809265137	-0.6848785697610714
0.501743283461158	2.1000001430511475	-0.7120025287382602
0.5709959342964659	2.1640000343322754	-0.7337016150844782
0.6319899261899845	2.186000108718872	-0.7411607139076467
0.690450167207488	2.194000005722046	-0.743873069387599
0.7423226713563787	2.17900013923645	-0.7387873826538052
0.8023968178437575	2.186000108718872	-0.7411607139076467
0.8760569826673126	2.2240002155303955	-0.7540446045262531
0.9339336248013924	2.2170000076293945	-0.7516711924368784
0.9989221840285525	2.2240002155303955	-0.7540446045262531
1.0479535878991795	2.194000005722046	-0.743873069387599
1.1311339998020615	2.2320001125335693	-0.7567569600062054
1.223486199014769	2.2800002098083496	-0.7730313353925187
1.2841718550905403	2.264000177383423	-0.7676065435970809
1.3750665768027728	2.2970001697540283	-0.7787951514140672
1.4492991742565666	2.2970001697540283	-0.7787951514140672
1.4825864059279465	2.2320001125335693	-0.7567569600062054
1.5704149627782242	2.248000144958496	-0.7621817518016432
1.6619330642359709	2.264000177383423	-0.7676065435970809
1.7766917682075534	2.305000066757202	-0.7815075068940195
1.8709427495783268	2.313000202178955	-0.7842199432095049
1.9844939021655856	2.3390002250671387	-0.7930352197726497
2.0878882592013444	2.3470001220703125	-0.795747575252602
-0.0	0.0	-0.0
-0.0	0.0	-0.0
-0.0	0.0	-0.0
-0.7724817336618697	0.9550000429153442	-0.33506011883699716
-0.750758263492178	0.9740000367164612	-0.3417262339101132
-0.7458144500250372	1.0160000324249268	-0.3564618600052414
-0.7384023901327638	1.0570000410079956	-0.37084664234119225
-0.7313295946489597	1.1010000705718994	-0.38628397686686183
-0.0	0.0	-0.0
-1.2242102945826274	2.0450000762939453	-0.7174847516163482
-0.9965944728401679	1.7570000886917114	-0.6164404524177017
-1.0131324083459887	1.8880001306533813	-0.6624015913233464
-1.0044388897245244	1.9820001125335693	-0.6953813229297494
-0.9677092012453125	2.0260000228881836	-0.7108186156310452
-0.9957780013453443	2.2170000076293945	-0.77783063103357
-0.940252570357255	2.2320001125335693	-0.7830933919821637
-0.870148284210235	2.2090001106262207	-0.7750238809601516
-0.8053332732779644	2.194000005722046	-0.7697611200115578
-0.7498174638966033	2.201000213623047	-0.7722171308867333
-0.6951706890453213	2.2090001106262207	-0.7750238809601516
-0.6276532771873514	2.1710000038146973	-0.7616916089895457
-0.5768009032565716	2.186000108718872	-0.7669543699381395
-0.5117781616625149	2.142000198364258	-0.7515170772368436
-0.4589606643201718	2.142000198364258	-0.7515170772368436
-0.4080004299638983	2.1490001678466797	-0.7539730044632715
-0.3571651412394956	2.1560001373291016	-0.7564289316896995
-0.30540471164374555	2.1560001373291016	-0.7564289316896995
-0.24974614694470332	2.120000123977661	-0.7437983890618219
-0.19626679064839575	2.0860002040863037	-0.7318695757766728
-0.15046394337200494	2.134999990463257	-0.7490610663616682
-0.09951313182436054	2.120000123977661	-0.7437983890618219
-0.04926004512721538	2.1000001430511475	-0.7367814302295286
-0.0	2.1000001430511475	-0.7367814302295286
0.04635135524625618	1.9760000705718994	-0.6932762185503119
0.09303539006610399	1.9820001125335693	-0.6953813229297494
0.1418660051909643	2.013000011444092	-0.7062575840251798
0.19062151651131326	2.0260000228881836	-0.7108186156310452
0.24173541273264693	2.052000045776367	-0.7199406788427761
0.2888312513274117	2.0390000343322754	-0.7153796472369106
0.3366231650893346	2.0320000648498535	-0.7129237200104828
0.37743359972728524	1.9880000352859497	-0.6974863854848131
0.4313201386416408	2.013000011444092	-0.7062575840251798
0.4967258158783576	2.0789999961853027	-0.7294135649014973
0.5593860592856987	2.120000123977661	-0.7437983890618219
0.6212929505550863	2.1490001678466797	-0.7539730044632715
0.685729720399804	2.17900013923645	-0.7644984427117115
0.7344872322714379	2.1560001373291016	-0.7564289316896995
0.7862461379269828	2.142000198364258	-0.7515170772368436
0.8551796440626892	2.1710000038146973	-0.7616916089895457
0.9179257967869277	2.17900013923645	-0.7644984427117115
0.9921848026888829	2.2090001106262207	-0.7750238809601516
1.0336242453409346	2.1640000343322754	-0.7592356817631178
1.1002203378465445	2.1710000038146973	-0.7616916089895457
1.1730441745385363	2.186000108718872	-0.7669543699381395
1.2399291496902651	2.186000108718872	-0.7669543699381395
1.3175975644846845	2.201000213623047	-0.7722171308867333
1.3887277128429625	2.201000213623047	-0.7722171308867333
1.4420676212563504	2.1710000038146973	-0.7616916089895457
1.5222127232629397	2.17900013923645	-0.7644984427117115
1.6156867238580102	2.201000213623047	-0.7722171308867333
1.7512554067768782	2.2720000743865967	-0.7971273096467504
1.8442496708644722	2.2800002098083496	-0.7999341433689162
1.9412235242479918	2.2880001068115234	-0.8027408934423346
2.0434083665843343	2.2970001697540283	-0.8058985500114908
-0.0	0.0	-0.0
-0.0	0.0	-0.0
-0.0	0.0	-0.0
-0.7740994755541273	0.9570000171661377	-0.3471377708076823
-0.7576954571499259	0.9830000400543213	-0.3565688991508973
-0.7509529128430591	1.0230000019073486	-0.37107830076111864
-0.7356080936148913	1.0530000925064087	-0.38196039521021236
-0.7273441196494663	1.0950000286102295	-0.3971952582526593
-0.0	0.0	-0.0
-0.0	0.0	-0.0
-0.9886534484283984	1.7430000305175781	-0.6322477891936695
-0.980935372807323	1.8280000686645508	-0.6630803108568176
-0.9983575423230319	1.970000147819519	-0.7145887644076733
-0.9648433099577651	2.0199999809265137	-0.7327254731790224
-0.9652354915042913	2.1490001678466797	-0.7795184057996982
-0.911606851231065	2.1640000343322754	-0.7849593881621036
-0.8465136782130767	2.1490001678466797	-0.7795184057996982
-0.7862461379269828	2.142000198364258	-0.7769792691661951
-0.737212567073873	2.1640000343322754	-0.7849593881621036
-0.6762887517542865	2.1490001678466797	-0.7795184057996982
-0.6088613153191348	2.1060001850128174	-0.7639207904204247
-0.5575390380050842	2.1130001544952393	-0.766459927053928
-0.4933808754659867	2.065000057220459	-0.7490485932319491
-0.44246204963325797	2.065000057220459	-0.7490485932319491
-0.3947104821255014	2.0789999961853027	-0.7541268664989554
-0.3478881261227552	2.1000001430511475	-0.7617443628823205
-0.2983220492844227	2.1060001850128174	-0.7639207904204247
-0.24173541273264693	2.052000045776367	-0.7443330290603416
-0.19372640719220233	2.059000015258789	-0.7468721656938448
-0.14701068758015715	2.0860002040863037	-0.756666089615314
-0.09664977734075232	2.059000015258789	-0.7468721656938448
-0.048298298456884804	2.059000015258789	-0.7468721656938448
-0.0	2.065000057220459	-0.7490485932319491
0.04604641186208105	1.9630000591278076	-0.7120495845327425
0.09275374717376157	1.9760000705718994	-0.7167651487043499
0.14010413399013869	1.9880000352859497	-0.7211179605391308
0.18704618818835364	1.9880000352859497	-0.7211179605391308
0.23560955881088896	2.0	-0.7254707723739117
0.28429836768112393	2.007000207901001	-0.7280099954902702
0.3313220023092942	2.0	-0.7254707723739117
0.3762944788005641	1.9820001125335693	-0.7189415762424541
0.42853466089373654	2.0	-0.7254707723739117
0.4902748430932868	2.052000045776367	-0.7443330290603416
0.5522618163720587	2.0930001735687256	-0.7592052262488173
0.6108850618774644	2.1130001544952393	-0.766459927053928
0.671882906362259	2.134999990463257	-0.7744400460498365
0.722223063215776	2.120000123977661	-0.7689990636874312
0.7730319134444151	2.1060001850128174	-0.7639207904204247
0.8323328958316665	2.1130001544952393	-0.766459927053928
0.8930714449942553	2.120000123977661	-0.7689990636874312
0.9683795671004559	2.1560001373291016	-0.7820575424332015
1.0092643971557655	2.1130001544952393	-0.766459927053928
1.0642389971468336	2.1000001430511475	-0.7617443628823205
1.1301148791132434	2.1060001850128174	-0.7639207904204247
1.191148793331423	2.1000001430511475	-0.7617443628823205
1.2529448721046224	2.0930001735687256	-0.7592052262488173
1.328787158709743	2.1060001850128174	-0.7639207904204247
1.4181549296268299	2.134999990463257	-0.7744400460498365
1.491474961900755	2.134999990463257	-0.7744400460498365
1.5620995222934315	2.128000020980835	-0.7719009094163333
1.6795711488854852	2.17900013923645	-0.7904004570073643
1.7932899816358912	2.2170000076293945	-0.8041843539439325
1.874197019068268	2.2090001106262207	-0.8012825082150303
1.9313187826732394	2.1710000038146973	-0.7874985247956068
-0.0	0.0	-0.0
-0.0	0.0	-0.0
-0.0	0.0	-0.0
-0.7821883296546741	0.9670000672340393	-0.3623482538967352
-0.7600078703502422	0.9860000610351562	-0.36946781346158186
-0.7480166733778699	1.0190000534057617	-0.38183336546024627
-0.7307179497922176	1.0460000038146973	-0.39195061903393025
-0.7246871891056175	1.0910000801086426	-0.40881276788255544
-0.0	0.0	-0.0
-1.1577617535500224	1.9340001344680786	-0.7246965077934704
-0.9727714672219984	1.715000033378601	-0.6426341513140525
-0.9782522918432422	1.8230000734329224	-0.6831032549475163
-0.9948100342936362	1.9630000591278076	-0.7355631792856931
-0.9376175704850487	1.9630000591278076	-0.7355631792856931
-0.9400827796479305	2.0930001735687256	-0.7842760140311759
-0.8871738294329383	2.1060001850128174	-0.7891472975057241
-0.8244546938326137	2.0930001735687256	-0.7842760140311759
-0.7656906873445796	2.0860002040863037	-0.7816530289816079
-0.7130249567296176	2.0930001735687256	-0.7842760140311759
-0.6608684804575632	2.1000001430511475	-0.7868989990807437
-0.6010553471143953	2.0789999961853027	-0.7790299545933123
-0.5485677109013856	2.0789999961853027	-0.7790299545933123
-0.484062778347887	2.0260000228881836	-0.7591701340705317
-0.4221066726532242	1.970000147819519	-0.738186209004625
-0.37971186421331826	2.0	-0.7494275671214352
-0.3313220023092942	2.0	-0.7494275671214352
-0.28075701961506344	1.9820001125335693	-0.7426827611852218
-0.23125078893842585	1.9630000591278076	-0.7355631792856931
-0.19062151651131326	2.0260000228881836	-0.7591701340705317
-0.1418660051909643	2.013000011444092	-0.7542988505959834
-0.09247210987712154	1.970000147819519	-0.738186209004625
-0.04677358433232085	1.9940000772476196	-0.7471793133658188
-0.0	2.007000207901001	-0.7520506415097309
0.04576492673680851	1.9510000944137573	-0.7310666271050963
0.09186188734084788	1.9570001363754272	-0.7333149255300767
0.13834226278931308	1.9630000591278076	-0.7355631792856931
0.1835649518802554	1.9510000944137573	-0.7310666271050963
0.2291303021226961	1.9450000524520874	-0.7288183286801159
0.27721568843540195	1.9570001363754272	-0.7333149255300767
0.3273461499725942	1.9760000705718994	-0.7404344627602414
0.3715480850244158	1.9570001363754272	-0.7333149255300767
0.4221066726532242	1.970000147819519	-0.738186209004625
0.48549634051440144	2.0320000648498535	-0.7614184324955121
0.5448736683401565	2.065000057220459	-0.7737839844941765
0.5912257012800237	2.0450000762939453	-0.7662897159700605
0.6457628856066459	2.052000045776367	-0.7689127010196283
0.6990573925056698	2.052000045776367	-0.7689127010196283
0.7631211794467506	2.0789999961853027	-0.7790299545933123
0.8244546938326137	2.0930001735687256	-0.7842760140311759
0.8728509196517272	2.072000026702881	-0.7764069695437444
0.9248114176403606	2.059000015258789	-0.7715356860691961
0.9677092012453125	2.0260000228881836	-0.7591701340705317
1.0135608806202954	2.0	-0.7494275671214352
1.0904051784933335	2.0320000648498535	-0.7614184324955121
1.1457716075743674	2.0199999809265137	-0.7569218356455514
1.1972716370761263	2.0	-0.7494275671214352
1.2783108155059726	2.0260000228881836	-0.7591701340705317
1.3856072533216606	2.0860002040863037	-0.7816530289816079
1.4572445380852244	2.0860002040863037	-0.7816530289816079
1.5114487352098056	2.059000015258789	-0.7715356860691961
1.5870751721912448	2.059000015258789	-0.7715356860691961
1.7035042941407814	2.1060001850128174	-0.7891472975057241
1.7817174337006478	2.1000001430511475	-0.7868989990807437
1.8494756954191978	2.0789999961853027	-0.7790299545933123
-0.0	0.0	-0.0
-0.0	0.0	-0.0
-0.0	0.0	-0.0
-0.0	0.0	-0.0
-0.7600078703502422	0.9860000610351562	-0.381372221646076
-0.7458144500250372	1.0160000324249268	-0.3929758271531831
-0.7286222690426122	1.0430001020431519	-0.40341910899648314
-0.7313295946489597	1.1010000705718994	-0.4258527555319495
-0.719286499167714	1.1400001049041748	-0.44093747035636655
-1.1607549297881947	1.939000129699707	-0.7499804680126082
-0.9699354015643247	1.7100000381469727	-0.6614061594259202
-0.9836184537714038	1.8330000638961792	-0.7089809973354149
-0.9856879829849292	1.9450000524520874	-0.7523011614488518
-0.9151682785317473	1.9160001277923584	-0.7410843612354334
-0.945921807779963	2.1060001850128174	-0.8145739549977044
-0.8816974434299348	2.0930001735687256	-0.8095457167228988
-0.8031834733027106	2.0390000343322754	-0.7886591530362985
-0.7436669215307545	2.0260000228881836	-0.7836309147614929
-0.6922439742772302	2.0320000648498535	-0.7859516543063662
-0.6498539795227183	2.065000057220459	-0.7987156295859099
-0.5952731943966829	2.059000015258789	-0.7963948900410366
-0.5329998882111271	2.0199999809265137	-0.7813101752166196
-0.4632762978261602	1.939000129699707	-0.7499804680126082
-0.4056080835089666	1.8930001258850098	-0.7321882544582587
-0.36718139822384116	1.9340001344680786	-0.7480465337614236
-0.31459024924999357	1.8990000486373901	-0.7345089478945024
-0.26191711747558566	1.849000096321106	-0.7151696053826572
-0.22371128182065608	1.8990000486373901	-0.7345089478945024
-0.18412948153718728	1.9570001363754272	-0.7569426405385984
-0.13629849555686122	1.9340001344680786	-0.7480465337614236
-0.09021897792978696	1.9220000505447388	-0.7434050546716771
-0.04508466798806218	1.9220000505447388	-0.7434050546716771
-0.0	1.9340001344680786	-0.7480465337614236
0.0446858971609001	1.90500009059906	-0.7368296874393757
0.08965569774080451	1.9100000858306885	-0.7387636216905602
0.13460709416330988	1.9100000858306885	-0.7387636216905602
0.17867239142982747	1.8990000486373901	-0.7345089478945024
0.2230044622443622	1.8930001258850098	-0.7321882544582587
0.2698497060725869	1.90500009059906	-0.7368296874393757
0.31459024924999357	1.8990000486373901	-0.7345089478945024
0.3605364243046427	1.8990000486373901	-0.7345089478945024
0.4068936709400066	1.8990000486373901	-0.7345089478945024
0.4632762978261602	1.939000129699707	-0.7499804680126082
0.5163766652308746	1.9570001363754272	-0.7569426405385984
0.5657842224292193	1.9570001363754272	-0.7569426405385984
0.6177546561158993	1.9630000591278076	-0.759263333974842
0.6666936559205813	1.9570001363754272	-0.7569426405385984
0.7297185831896351	1.9880000352859497	-0.7689330052307646
0.7905784064535716	2.007000207901001	-0.7762820291590732
0.8269335833999001	1.9630000591278076	-0.759263333974842
0.8816924983276053	1.9630000591278076	-0.759263333974842
0.9290199535621525	1.9450000524520874	-0.7523011614488518
0.9801134397056177	1.9340001344680786	-0.7480465337614236
1.0437195185425707	1.9450000524520874	-0.7523011614488518
1.099827384490338	1.939000129699707	-0.7499804680126082
1.1643466984562312	1.9450000524520874	-0.7523011614488518
1.2467631950229414	1.9760000705718994	-0.7642915722496477
1.341767186694673	2.0199999809265137	-0.7813101752166196
1.4111378960419474	2.0199999809265137	-0.7813101752166196
1.4732772721308196	2.007000207901001	-0.7762820291590732
1.5469937721889722	2.007000207901001	-0.7762820291590732
1.6282781872498184	2.013000011444092	-0.7786026764866872
1.7079033191009583	2.013000011444092	-0.7786026764866872
1.8023269880354813	2.0260000228881836	-0.7836309147614929
-0.0	0.0	-0.0
-0.0	0.0	-0.0
-0.0	0.0	-0.0
-0.7821883296546741	0.9670000672340393	-0.3857939077802484
-0.7615494485216524	0.9880000352859497	-0.3941720454997012
-0.7399418835867771	1.0080000162124634	-0.4021512288096261
-0.7342108620783572	1.0509999990463257	-0.4193064824379016
-0.7386362724201244	1.1120001077651978	-0.44364305811673027
-0.7218102787201724	1.1440000534057617	-0.4564097419006734
-1.1577617535500224	1.9340001344680786	-0.7715878155604968
-0.9994305384978416	1.7620000839233398	-0.7029667534877111
-0.9836184537714038	1.8330000638961792	-0.7312928732618182
-0.9709913883969106	1.9160001277923584	-0.7644065410696276
-0.9099141634844925	1.90500009059906	-0.7600179712252952
-0.945921807779963	2.1060001850128174	-0.8402088776332826
-0.8728509196517272	2.072000026702881	-0.8266441899109157
-0.7760036951890936	1.970000147819519	-0.7859503645422353
-0.7275162416139799	1.9820001125335693	-0.7907378650162535
-0.6605615713927504	1.939000129699707	-0.773582611387978
-0.6177546561158993	1.9630000591278076	-0.7831576123360143
-0.5640495628281661	1.9510000944137573	-0.7783701118619962
-0.5087246749901543	1.9280000925064087	-0.7691940415436457
-0.44440119555028984	1.8600001335144043	-0.7420648087779641
-0.39853726323894995	1.8600001335144043	-0.7420648087779641
-0.36167556786395466	1.90500009059906	-0.7600179712252952
-0.3011717130540531	1.818000078201294	-0.7253084857793746
-0.25242633640497375	1.7820000648498535	-0.710945936797636
-0.21723202513246323	1.8440001010894775	-0.7356814431061506
-0.1760379383910089	1.871000051498413	-0.7464533310626125
-0.13228142249796715	1.877000093460083	-0.7488471050794635
-0.08834137356937719	1.8820000886917114	-0.7508419009069447
-0.04402909667105637	1.877000093460083	-0.7488471050794635
-0.0	1.8820000886917114	-0.7508419009069447
0.04313772477743356	1.8390001058578491	-0.7336866472786693
0.08580660432540257	1.8280000686645508	-0.7292980774343369
0.1296033765924593	1.8390001058578491	-0.7336866472786693
0.17302713972498118	1.8390001058578491	-0.7336866472786693
0.2178210484677535	1.849000096321106	-0.7376762389336318
0.2612088512396534	1.8440001010894775	-0.7356814431061506
0.30017774009571296	1.812000036239624	-0.7229147117625234
0.3461073781721155	1.8230000734329224	-0.7273032816068558
0.3927520303999733	1.8330000638961792	-0.7312928732618182
0.43675556863837567	1.8280000686645508	-0.7292980774343369
0.48101922996204843	1.8230000734329224	-0.7273032816068558
0.5377407541768351	1.8600001335144043	-0.7420648087779641
0.5995021092315507	1.90500009059906	-0.7600179712252952
0.6431873386657587	1.8880001306533813	-0.7532356749237958
0.6948477592154161	1.8930001258850098	-0.755230470751277
0.74567257992651	1.8930001258850098	-0.755230470751277
0.7860713533746467	1.8660000562667847	-0.7444585352351312
0.8502516352789152	1.8930001258850098	-0.755230470751277
0.9070482721969452	1.8990000486373901	-0.7576241972084441
0.9593354373031703	1.8930001258850098	-0.755230470751277
1.004009881892357	1.871000051498413	-0.7464533310626125
1.064660116241474	1.877000093460083	-0.7488471050794635
1.1404012885508528	1.90500009059906	-0.7600179712252952
1.2202632088602872	1.9340001344680786	-0.7715878155604968
1.2959346201190989	1.9510000944137573	-0.7783701118619962
1.3671272678586672	1.9570001363754272	-0.7807638858788473
1.4152857113684572	1.9280000925064087	-0.7691940415436457
1.508453766585305	1.9570001363754272	-0.7807638858788473
1.5829809321357422	1.9570001363754272	-0.7807638858788473
1.6451190950941004	1.939000129699707	-0.773582611387978
1.7302695195765536	1.9450000524520874	-0.7759763378451451
-0.0	0.0	-0.0
-5.23973665270523	5.890000343322754	-2.422172671765533
-0.0	0.0	-0.0
-0.0	0.0	-0.0
-0.7592370812645372	0.9850000739097595	-0.40506623457432844
-0.7436122266722045	1.0130000114440918	-0.41658078118784214
-0.7391010059010309	1.058000087738037	-0.4350863751900776
-0.7373077279644799	1.1100000143051147	-0.4564705506948172
-0.7155007546235662	1.1340000629425049	-0.4663402040975427
-1.1332176798518294	1.8930001258850098	-0.7784673862991202
-1.0136108667862096	1.787000060081482	-0.7348764783824983
-0.972349488134386	1.812000036239624	-0.7451573367042961
-0.9568015375181369	1.8880001306533813	-0.7764112146347606
-0.8989283228018888	1.8820000886917114	-0.7739437890283293
-0.8902264789955057	1.9820001125335693	-0.81506727133852
-0.8298824413986746	1.970000147819519	-0.8101324691486569
-0.74567257992651	1.8930001258850098	-0.7784673862991202
-0.7010877926488445	1.9100000858306885	-0.7854583601533427
-0.631945190466598	1.8550001382827759	-0.7628404718453876
-0.5922640257669725	1.8820000886917114	-0.7739437890283293
-0.5377407541768351	1.8600001335144043	-0.7648966435097472
-0.48946280973866685	1.8550001382827759	-0.7628404718453876
-0.42815425260353324	1.7920000553131104	-0.7369326500468578
-0.38075306112099616	1.777000069618225	-0.7307641350537791
-0.34515809941688586	1.818000078201294	-0.7476247623107273
-0.29437961058483275	1.777000069618225	-0.7307641350537791
-0.25242633640497375	1.7820000648498535	-0.7328203067181387
-0.2122842178812858	1.8020000457763672	-0.7410449933755769
-0.17001632984283532	1.8070000410079956	-0.7431011650399365
-0.12812340142325995	1.818000078201294	-0.7476247623107273
-0.08533720323530013	1.818000078201294	-0.7476247623107273
-0.04238709404829117	1.8070000410079956	-0.7431011650399365
-0.0	1.812000036239624	-0.7451573367042961
0.0421525226445121	1.7970000505447388	-0.7389888217112174
0.08341265652759917	1.777000069618225	-0.7307641350537791
0.12523392929340013	1.777000069618225	-0.7307641350537791
0.16766414163248272	1.7820000648498535	-0.7328203067181387
0.21110617121070527	1.7920000553131104	-0.7369326500468578
0.2545511351127706	1.7970000505447388	-0.7389888217112174
0.2918946979373127	1.7620000839233398	-0.7245956200607004
0.3364247258157366	1.7720000743865967	-0.7287079633894196
0.3828957323820523	1.787000060081482	-0.7348764783824983
0.4209864987352052	1.7620000839233398	-0.7245956200607004
0.4649236913994319	1.7620000839233398	-0.7245956200607004
0.5209724699382505	1.8020000457763672	-0.7410449933755769
0.5837671614890216	1.8550001382827759	-0.7628404718453876
0.6227470433692637	1.8280000686645508	-0.7517371056394464
0.6827347273992554	1.8600001335144043	-0.7648966435097472
0.7326735372365154	1.8600001335144043	-0.7648966435097472
0.7721697735879813	1.8330000638961792	-0.753793277303806
0.8282429990187191	1.8440001010894775	-0.7583168745745967
0.8884201496471249	1.8600001335144043	-0.7648966435097472
0.9345031831620823	1.8440001010894775	-0.7583168745745967
0.9669833262062244	1.8020000457763672	-0.7410449933755769
1.0277911950745777	1.812000036239624	-0.7451573367042961
1.113462702407302	1.8600001335144043	-0.7648966435097472
1.1943941299780176	1.8930001258850098	-0.7784673862991202
1.2394740938169688	1.8660000562667847	-0.767364020093179
1.314733500288976	1.8820000886917114	-0.7739437890283293
1.3734437301882805	1.871000051498413	-0.7694201917575385
1.4506438041230054	1.8820000886917114	-0.7739437890283293
1.5498167894266845	1.9160001277923584	-0.787925785759774
1.6018488183180566	1.8880001306533813	-0.7764112146347606
1.6599912256126204	1.8660000562667847	-0.767364020093179
-0.0	0.0	-0.0
-5.390078965476639	6.059000492095947	-2.566694585150212
-0.0	0.0	-0.0
-0.0	0.0	-0.0
-0.7600078703502422	0.9860000610351562	-0.4176862208409007
-0.7472825697576317	1.0180000066757202	-0.4312419363929759
-0.7342108620783572	1.0509999990463257	-0.4452212885712973
-0.7426216682358977	1.1180000305175781	-0.47360362955418595
-0.0	0.0	-0.0
-1.0972994936308114	1.8330000638961792	-0.7764896775829166
-1.0079387354708624	1.777000069618225	-0.7527671374924889
-0.9643002452421435	1.7970000505447388	-0.7612394660249185
-0.94007778685433	1.8550001382827759	-0.7858092793678384
-0.8831660345998701	1.849000096321106	-0.783267560608485
-0.8480058593468659	1.8880001306533813	-0.7997886315461598
-0.7814375269245024	1.8550001382827759	-0.7858092793678384
-0.7244014063543948	1.8390001058578491	-0.7790313963422701
-0.6786970355414823	1.849000096321106	-0.783267560608485
-0.6155929379849315	1.8070000410079956	-0.7654756302911334
-0.5752702596959963	1.8280000686645508	-0.7743715954498092
-0.5238635462971067	1.812000036239624	-0.7675937124242409
-0.4767974400737392	1.8070000410079956	-0.7654756302911334
-0.4140576529065482	1.7330000400543213	-0.7341279844217067
-0.36532580760726663	1.7050000429153442	-0.7222667143764928
-0.32826092399424334	1.7290000915527344	-0.7324335389148453
-0.2902380895056326	1.752000093460083	-0.7421767268269517
-0.24888500522531232	1.7570000886917114	-0.7442948089600592
-0.20757203119896372	1.7620000839233398	-0.7464128910931666
-0.16484151578005957	1.752000093460083	-0.7421767268269517
-0.12185113490756204	1.7290000915527344	-0.7324335389148453
-0.0802676647473509	1.7100000381469727	-0.7243847965096002
-0.04044015083766255	1.724000096321106	-0.7303154567817378
-0.0	1.724000096321106	-0.7303154567817378
0.04121423702939582	1.7570000886917114	-0.7442948089600592
0.08115953017596697	1.7290000915527344	-0.7324335389148453
0.12185113490756204	1.7290000915527344	-0.7324335389148453
0.16220706274124103	1.724000096321106	-0.7303154567817378
0.20415568742822576	1.7330000400543213	-0.7341279844217067
0.24761011586879475	1.7480000257492065	-0.7404822308210289
0.2879188258522824	1.7380000352859497	-0.7362460665548141
0.3318681742110798	1.7480000257492065	-0.7404822308210289
0.3723966278772833	1.7380000352859497	-0.7362460665548141
0.409756994889127	1.715000033378601	-0.7265028786427076
0.45489696400573904	1.724000096321106	-0.7303154567817378
0.5039150987423896	1.7430000305175781	-0.7383641486879216
0.5560736084440809	1.7670000791549683	-0.748530973226274
0.6002627469709423	1.7620000839233398	-0.7464128910931666
0.6614451192011414	1.8020000457763672	-0.763357548158026
0.7161292754722742	1.818000078201294	-0.7701354311835943
0.7548981062442279	1.7920000553131104	-0.7591213838918112
0.8071326624226384	1.7970000505447388	-0.7612394660249185
0.8654931332262379	1.812000036239624	-0.7675937124242409
0.9030827774973205	1.7820000648498535	-0.7548852196255963
0.9482017594576587	1.7670000791549683	-0.748530973226274
0.9994305384978416	1.7620000839233398	-0.7464128910931666
1.0727554199326181	1.7920000553131104	-0.7591213838918112
1.1432868794938627	1.812000036239624	-0.7675937124242409
1.1869990425143324	1.787000060081482	-0.7570033017587037
1.258846820433145	1.8020000457763672	-0.763357548158026
1.3345380759811745	1.818000078201294	-0.7701354311835943
1.3889798502889794	1.8020000457763672	-0.763357548158026
1.4656930539152182	1.812000036239624	-0.7675937124242409
1.5373675402438824	1.812000036239624	-0.7675937124242409
1.598608910172089	1.7970000505447388	-0.7612394660249185
-0.0	0.0	-0.0
-0.0	0.0	-0.0
-0.0	0.0	-0.0
-0.7797616686032015	0.9640000462532043	-0.4204101143385054
-0.7615494485216524	0.9880000352859497	-0.4308767509041318
-0.7472825697576317	1.0180000066757202	-0.44396004011261864
-0.7321151813287518	1.0480000972747803	-0.45704338130947536
-0.7386362724201244	1.1120001077651978	-0.48495442948060247
-0.0	0.0	-0.0
-1.0697622436944458	1.787000060081482	-0.779328696613405
-1.0051026698131889	1.7720000743865967	-0.7727870520091615
-0.9562510023499011	1.7820000648498535	-0.7771481484119905
-0.9157522764224869	1.8070000410079956	-0.7880508894190629
-0.8631049094665304	1.8070000410079956	-0.7880508894190629
-0.8188107186867034	1.8230000734329224	-0.795028664458937
-0.7612170015819744	1.8070000410079956	-0.7880508894190629
-0.7039180435906273	1.787000060081482	-0.779328696613405
-0.650433280051388	1.7720000743865967	-0.7727870520091615
-0.5954933298443288	1.7480000257492065	-0.7623203894493502
-0.5513531241213223	1.752000093460083	-0.7640648592035038
-0.5094081645028257	1.7620000839233398	-0.7684259556063326
-0.4649236913994319	1.7620000839233398	-0.7684259556063326
-0.40521742883203477	1.696000099182129	-0.7396426985523137
-0.3614689942288343	1.687000036239624	-0.7357176805967457
-0.3219956796832094	1.696000099182129	-0.7396426985523137
-0.2832803182939122	1.7100000381469727	-0.7457482127209263
-0.24095241662831104	1.7010000944137573	-0.7418232467537282
-0.20203520061249602	1.715000033378601	-0.7479287609223407
-0.16088983061377268	1.7100000381469727	-0.7457482127209263
-0.11825691429737197	1.6780000925064087	-0.7317927146295476
-0.07754513730561627	1.652000069618225	-0.7204538431868445
-0.03886852019529342	1.6570000648498535	-0.7226343913882589
-0.0	1.665000081062317	-0.7261232789081961
0.040229034896474364	1.715000033378601	-0.7479287609223407
0.07918804112097481	1.687000036239624	-0.7357176805967457
0.11889118456916335	1.687000036239624	-0.7357176805967457
0.1562795462079288	1.66100013256073	-0.7243788611424125
0.1976764307400329	1.6780000925064087	-0.7317927146295476
0.23896926103586122	1.687000036239624	-0.7357176805967457
0.2824520140780722	1.7050000429153442	-0.7435676645195117
0.32465365114481615	1.7100000381469727	-0.7457482127209263
0.36254032985936235	1.6920000314712524	-0.7378982287981601
0.4030670855822631	1.687000036239624	-0.7357176805967457
0.44750884742855895	1.696000099182129	-0.7396426985523137
0.4903270467486352	1.696000099182129	-0.7396426985523137
0.5337299676436599	1.696000099182129	-0.7396426985523137
0.5747123880031173	1.687000036239624	-0.7357176805967457
0.6276754441361704	1.7100000381469727	-0.7457482127209263
0.6901311900922849	1.752000093460083	-0.7640648592035038
0.736362649789302	1.7480000257492065	-0.7623203894493502
0.7783866983662943	1.7330000400543213	-0.7557787448451068
0.8234603836674367	1.724000096321106	-0.7518537788779087
0.8691284720475254	1.715000033378601	-0.7479287609223407
0.9202976662554615	1.715000033378601	-0.7479287609223407
0.9750403603184206	1.7190001010894775	-0.7496732306764943
1.0350413850590572	1.7290000915527344	-0.7540343270793232
1.0909178144489389	1.7290000915527344	-0.7540343270793232
1.1484730745262028	1.7290000915527344	-0.7540343270793232
1.200864459827709	1.7190001010894775	-0.7496732306764943
1.2758124991064557	1.7380000352859497	-0.7579592930465212
1.3288575665127658	1.724000096321106	-0.7518537788779087
1.3904671398765998	1.7190001010894775	-0.7496732306764943
1.4584629714330934	1.7190001010894775	-0.7496732306764943
1.5292202564798678	1.7190001010894775	-0.7496732306764943
-0.0	0.0	-0.0
-0.0	0.0	-0.0
-0.0	0.0	-0.0
-0.7724817336618697	0.9550000429153442	-0.42852639763788736
-0.7522998876067892	0.9760000705718994	-0.4379495031850746
-0.7480166733778699	1.0190000534057617	-0.4572444004774713
-0.7384023901327638	1.0570000410079956	-0.4742957063054367
-0.7373077279644799	1.1100000143051147	-0.49807778652669593
-0.7155007546235662	1.1340000629425049	-0.5088470576508298
-1.0434222499807595	1.7430000305175781	-0.7821167440791793
-0.9858173827707248	1.7380000352859497	-0.779873152614748
-0.945518678493578	1.7620000839233398	-0.7906424237388819
-0.8954810781422207	1.7670000791549683	-0.7928860152033133
-0.8463873431485779	1.7720000743865967	-0.7951296066677445
-0.7914122308982933	1.7620000839233398	-0.7906424237388819
-0.7422603155687351	1.7620000839233398	-0.7906424237388819
-0.6810712484018165	1.7290000915527344	-0.7758347093753477
-0.6258401376112115	1.7050000429153442	-0.7650654382512139
-0.5747123880031173	1.687000036239624	-0.7569884982809734
-0.5280653789533345	1.6780000925064087	-0.7529500550415731
-0.48772505734705535	1.687000036239624	-0.7569884982809734
-0.44170387846845327	1.6740000247955322	-0.7511551497751642
-0.3937490169462855	1.6480001211166382	-0.7394885062549856
-0.35782645819357	1.6700000762939453	-0.7493602980001951
-0.31857827163786445	1.6780000925064087	-0.7529500550415731
-0.27450028965634193	1.6570000648498535	-0.7435269494943859
-0.23401139738433518	1.652000069618225	-0.7412833580299546
-0.1967339905948837	1.6700000762939453	-0.7493602980001951
-0.15665589183513798	1.665000081062317	-0.7471167065357639
-0.11586076442349039	1.6440000534057617	-0.7376936009885766
-0.07716961531439383	1.6440000534057617	-0.7376936009885766
-0.03807097574465756	1.6230000257492065	-0.7282704954413894
-0.0	1.6150001287460327	-0.7246807918914514
0.03917346357946855	1.6700000762939453	-0.7493602980001951
0.07857781858470116	1.6740000247955322	-0.7511551497751642
0.11705884356106347	1.66100013256073	-0.7453218547607948
0.15345690913938753	1.63100004196167	-0.7318602524827674
0.1921396001535652	1.63100004196167	-0.7318602524827674
0.23047006620467375	1.627000093460083	-0.7300654007077984
0.2723466947454918	1.6440000534057617	-0.7376936009885766
0.3136420130576339	1.652000069618225	-0.7412833580299546
0.35139844441040147	1.6400001049041748	-0.7358987492136077
0.3927932993412352	1.6440000534057617	-0.7376936009885766
0.437218246371326	1.6570000648498535	-0.7435269494943859
0.47905182827048676	1.6570000648498535	-0.7435269494943859
0.5161068111659975	1.6400001049041748	-0.7358987492136077
0.5529094253054047	1.6230000257492065	-0.7282704954413894
0.5972093470704208	1.627000093460083	-0.7300654007077984
0.6542853522134795	1.66100013256073	-0.7453218547607948
0.7127720871078022	1.6920000314712524	-0.7592320897454046
0.7460475356534888	1.66100013256073	-0.7453218547607948
0.7790393534091821	1.63100004196167	-0.7318602524827674
0.8331470709348783	1.6440000534057617	-0.7376936009885766
0.8864908333141042	1.652000069618225	-0.7412833580299546
0.9444108106452621	1.665000081062317	-0.7471167065357639
1.01528640761453	1.696000099182129	-0.7610269950118136
1.0536915771496858	1.6700000762939453	-0.7493602980001951
1.1119397648540998	1.6740000247955322	-0.7511551497751642
