x y z 
0.16741914478122547 1.6629435642748418 0.6642676763868278
0.2075144859999567 1.6678033549149571 0.6662624722143091
0.24356750672674096 1.6416770760163124 0.6558895148875331
0.28811051248056196 1.6715214398268017 0.6678582898524205
0.33035276256895263 1.6803738137380095 0.6714489508776971
0.3638151801521432 1.6452565968044994 0.6574853800853285
0.40542103520740624 1.6491110515110567 0.6590811977234399
0.45597251264928645 1.6839344262479632 0.6730447685158085
0.49358898009341623 1.666802797117802 0.6662624722143091
0.5280531906527943 1.640682075150775 0.6558895148875331
0.5872708610149998 1.6884752304638813 0.6750395643432897
0.6252531499997189 1.6703422690105003 0.6678582898524205
0.6650315715795406 1.6572031705299695 0.6626718587487165
0.7121580066573812 1.6610383167714224 0.6642676763868278
0.766751482039411 1.6788474905234279 0.6714489508776971
0.8060386560428161 1.6607099651787989 0.6642676763868278
0.8545485243959737 1.660540299836303 0.6642676763868278
0.9236696041603772 1.6962987794403652 0.6786302253685664
0.9528864439010363 1.656196385783699 0.6626718587487165
1.0430124613824587 1.7188815152693515 0.6878062956869169
1.0841346894856942 1.6957375459308832 0.6786302253685664
1.1113771902037544 1.6516419654326921 0.6610759935509211
1.1928540813355863 1.6863571772105215 0.6750395643432897
1.2624846739255937 1.6991137321874532 0.6802260430066778
1.3467885864661049 1.7268190440398845 0.6913969091525095
1.4014117126331442 1.712627972722472 0.6858114998594357
1.4310702516687965 1.6675238891800623 0.6678582898524205
1.5160504673097677 1.6852267840063893 0.6750395643432897
-0.6715774579640464 0.840872897130542 0.2947125637269367
-0.6395884777459064 0.8407610143019741 0.2947125637269367
-0.6050828906595023 0.8356403037195648 0.29295832401886335
-0.5747570264194352 0.8345342444686679 0.2926074802596861
-0.5414908290745445 0.8274178226165552 0.29015153212107125
-0.5133342312715649 0.826319350467943 0.289800688361894
-0.4860452651519039 0.8252239128983084 0.28944984460271667
-0.4595584462804885 0.8241312808730349 0.2890990008435394
-0.4343466970842931 0.8240431017002704 0.2890990008435394
-0.41076831057455365 0.8259606217668717 0.289800688361894
-0.3928666417855097 0.838898100870617 0.2943617199677594
-0.38099671719683964 0.8658567604569334 0.30383462693866753
-0.38232269493143045 0.9268617607298154 0.32523636810691176
-0.37414783086928416 0.970833467477577 0.34067370263258134
-0.36880078274661293 1.0278150363798553 0.36067202693974265
-0.3605532479044737 1.083786646278915 0.38031957022428725
-0.35293897208274727 1.1497604034455466 0.4034755511006048
-0.3457865628402514 1.2277358141207686 0.43084169891142354
-0.34967250408313455 1.3617502879050982 0.47785539000678695
-0.33171889292596207 1.429687869286911 0.5017130584014591
-0.3213288185131501 1.5476522818076959 0.5431131657012384
-0.3070212025598554 1.6736029384927518 0.5873200230744359
-0.27381645863569776 1.7184871550102472 0.6031082222714697
-0.2319949824430175 1.7143407904290038 0.6017048054103867
-0.1884658273030511 1.6911884027601232 0.5936352943883746
-0.14552836914582307 1.6600381386431675 0.5827590332929442
-0.10898698234145292 1.6999105400857244 0.5967929509575309
-0.06856361187562152 1.6907690396256283 0.5936352943883746
-0.028211890925144464 1.6596278192353138 0.5827590332929442
0.01080967892663985 1.6764914035472256 0.5887234399355188
0.049254104003729024 1.6423566954657929 0.5767945848259959
0.08806165934670976 1.6462210565554785 0.5781980016870788
0.12655081883969294 1.6420863468946325 0.5767945848259959
0.16615054433098225 1.6499479103021004 0.579601376723788
0.20799968607437214 1.671801630873722 0.5873200230744359
0.24734141101926782 1.667664058538707 0.5859166480377267
0.2874338911544751 1.6675238333720641 0.5859166480377267
0.3338331051215678 1.698361757861528 0.5967929509575309
0.3657750397714983 1.654249740891859 0.5813556164318613
0.40542103520740624 1.6491110515110567 0.579601376723788
0.4524968654583852 1.6709464915157366 0.5873200230744359
0.5052931155218396 1.7067620679109554 0.5999505657023134
0.5251894548921558 1.6316920924089373 0.5736369700812134
0.5886475510151907 1.6924705076084625 0.5950387112494575
0.6367404215880275 1.7013022995138947 0.5981963259942401
0.6650315715795406 1.6572031705299695 0.5827590332929442
0.7121580066573812 1.6610383167714224 0.5841624083296534
0.7644882322527685 1.673855380522983 0.5887234399355188
0.8252842299871389 1.7006428594677039 0.5981963259942401
0.8749594994148622 1.7004691180850293 0.5981963259942401
0.911247051420891 1.6733420852664966 0.5887234399355188
0.9779975326238523 1.7001087381502245 0.5981963259942401
1.0719146727438464 1.7667807001988824 0.6217031715419218
1.095554733847681 1.7136977206072244 0.6031082222714697
1.143428438590165 1.6995301364703386 0.5981963259942401
1.1928540813355863 1.6863571772105215 0.5936352943883746
1.259534462513808 1.69512407771143 0.5967929509575309
1.3692430831092854 1.7557407297204615 0.618194692125775
1.4607149726421826 1.7854209577497246 0.6287201303742151
1.5017804253467142 1.7502771488751998 0.6164404524177017
1.5571326466461566 1.7310833824927918 0.6097743164323989
-0.7883574298474391 0.9862822674916204 0.29957890526560366
-0.7447081543777215 0.9781295371373024 0.2971457723527056
-0.6993260790405501 0.9649707204277027 0.29319193590130027
-0.6609471201927265 0.9588364693199387 0.29136709528073484
-0.6293692070697481 0.9607260106995488 0.29197536944485125
-0.6018049315613873 0.9676296753671708 0.2941043652756911
-0.5687689786532301 0.9645140913766563 0.29319193590130027
-0.527203970778871 0.9443686127270878 0.28710912174727127
-0.5004530756715544 0.9482750828973878 0.2883256882037203
-0.47065861794134595 0.9451708361751083 0.2874132588293295
-0.4459708499914943 0.9510845087044205 0.289238099449895
-0.4179861128376338 0.9489866444040882 0.2886298252857785
-0.38942462297828034 0.9438867235563471 0.28710912174727127
-0.37258618552501055 0.9668279729842738 0.2941043652756911
-0.36880078274661293 1.0278150363798553 0.3126569448198364
-0.36223910445273866 1.0887925684479272 0.3312095787486301
-0.35293897208274727 1.1497604034455466 0.3497621764209915
-0.3457865628402514 1.2277358141207686 0.37348515887299116
-0.3481103199700304 1.3557447454390141 0.41241521296649564
-0.3331314610488931 1.4356928884646605 0.436746505839044
-0.3228041915702997 1.554657454285086 0.47293927180937606
-0.29975328564918524 1.634577364980582 0.49727056468192443
-0.27770834638689995 1.7425008432752576 0.5301177683649676
-0.2351725475784955 1.7373520466833745 0.5285970648264603
-0.18743707489786468 1.68218480587419 0.5118693259028805
-0.14869899936503453 1.6950494087528167 0.5158231623542858
-0.11146512600304209 1.7369193746773801 0.5285970648264603
-0.06912836286077712 1.703771105823547 0.518560414221026
-0.027952417224894208 1.6466268207577757 0.5012244011333298
0.010781698698392156 1.668491436265636 0.5079154894514752
0.049254104003729024 1.6423566954657929 0.5000078165486646
0.08765815942406238 1.6382224026701053 0.4987912682204317
0.1258850749511255 1.633088676582071 0.49727056468192443
0.16536986623598746 1.6419505756135417 0.5000078165486646
0.21018311532979214 1.689794111007051 0.5146065777696207
0.24414811670425512 1.645675137484873 0.5012244011333298
0.2887871539717954 1.6755191654210295 0.5103486223643733
0.3346065043335314 1.7023590258314643 0.518560414221026
0.36751715163283444 1.6622437129246368 0.5063947859129679
0.4044513620241488 1.6451144700177425 0.5012244011333298
0.45142745026340014 1.666950258874381 0.5079154894514752
0.5026596990028744 1.6977712796177042 0.5173438658927931
0.5293259916044644 1.6446777156517534 0.5012244011333298
0.5721275582079505 1.6445280153391433 0.5012244011333298
0.6319231772389359 1.6883190570751965 0.5146065777696207
0.6666211734648432 1.6611975837960935 0.5063947859129679
0.7049371880620858 1.6440635079697992 0.5012244011333298
0.7608670218021144 1.665867980718013 0.5079154894514752
0.8190294069839671 1.6876646450219273 0.5146065777696207
0.8611821034430133 1.6735171895665921 0.5103486223643733
0.8972041545177776 1.647391018985632 0.5024409494615626
0.9528864439010363 1.656196385783699 0.505178237584735
1.0129059343889477 1.6689864367919078 0.5091320377797081
1.0727146451237077 1.6777773712545418 0.5118693259028805
1.1501057786873266 1.7095068338143642 0.5216018212980406
1.205491460720523 1.704313094205475 0.5200811177595333
1.246258335312206 1.677170394764326 0.5118693259028805
1.3251084178220183 1.6988947029606738 0.518560414221026
1.4282200462638075 1.7455344036384965 0.53285505648814
1.523078633722761 1.7752027865466933 0.5419792777191835
1.6053595667103588 1.7849150570860886 0.545020684796198
-0.81574029563861 1.0203782276906168 0.2635313322703213
-0.7938151101977755 1.0423016331528536 0.2692209075342143
-0.7789579352384046 1.0742499301215687 0.27749668700491525
-0.7638191582443797 1.1071971758117978 0.28603106531556405
-0.7377305247500049 1.1251060464693163 0.2906861835604287
-0.711608974433613 1.1430148019988398 0.2953413018052934
-0.6794640501101258 1.15090243889272 0.2974102466729686
-0.6365642006646988 1.1387522375111963 0.2943068139566465
-0.5942814737385756 1.1246043272687325 0.2906861835604287
-0.5607457156613814 1.1244870345183462 0.2906861835604287
-0.5279979121236665 1.1243724976727136 0.2906861835604287
-0.4906279552937592 1.1122417565375056 0.2875827816737251
-0.4604438287454718 1.1141361727453638 0.2881000101832393
-0.43622307622975814 1.130051470703193 0.29223786908897126
-0.4007942504338379 1.1159275322735207 0.28861723869275346
-0.3720170563550794 1.1178268692879572 0.28913446720226765
-0.35169415177626207 1.145755957456375 0.29637575882432177
-0.34978510016150915 1.2417499429801964 0.3212030664068061
-0.33587328350509743 1.308701607864695 0.33853042186805155
-0.3234789776938899 1.394658869135785 0.3607715560733465
-0.3228041915702997 1.554657454285086 0.4021503609379957
-0.29975328564918524 1.634577364980582 0.4228397787851296
-0.27543808175391077 1.7284928783336067 0.4471498270284813
-0.23448177326510286 1.7323496048571037 0.44818428404750965
-0.1878942951609695 1.686186377988454 0.4362878741805909
-0.14589072256551652 1.6640393789565833 0.4305982989166979
-0.11019256811809192 1.717914873444297 0.44456365365129186
-0.06856361187562152 1.6907690396256283 0.43758096086918563
-0.027872577882086205 1.6426264493394267 0.4251673224927527
0.010718743289069101 1.6504915396841995 0.4272362673604279
0.049254104003729024 1.6423566954657929 0.4251673224927527
0.0874059727239834 1.633223258890371 0.4228397787851296
0.1258850749511255 1.633088676582071 0.4228397787851296
0.16536986623598746 1.6419505756135417 0.4251673224927527
0.20909140793221972 1.680797930520108 0.4352534171615625
0.24414811670425512 1.645675137484873 0.4262018103413996
0.28523484159697304 1.6545314336849313 0.42852935404902265
0.3346065043335314 1.7023590258314643 0.4409429924254556
0.36860596830123993 1.6672399305552197 0.4318913856052926
0.4044513620241488 1.6451144700177425 0.4262018103413996
0.44902125013895056 1.657958675882057 0.4295638418976695
0.5052931155218396 1.7067620679109554 0.4422360791140503
0.533462528316773 1.6576633388945694 0.4295638418976695
0.5735042071802767 1.6485231734172023 0.4272362673604279
0.6352582129454586 1.697307510635304 0.4399085354064272
0.6737744766975796 1.6791726815823012 0.4352534171615625
0.7049371880620858 1.6440635079697992 0.4262018103413996
0.7644882322527685 1.673855380522983 0.43396033047296784
0.8252842299871389 1.7006428594677039 0.4409429924254556
0.8637334753203744 1.6785082918476828 0.4352534171615625
0.9069261551132991 1.6653571326427825 0.4318913856052926
0.9528864439010363 1.656196385783699 0.4295638418976695
1.0153144938737433 1.6729781049287662 0.43396033047296784
1.086672443507497 1.6997286429942955 0.4409429924254556
1.125399636247863 1.6725930774277917 0.43396033047296784
1.1956624343622533 1.6903474470523419 0.4386154487178325
1.2492085467239915 1.6811600492403491 0.4362878741805909
1.33594854829545 1.712856932943872 0.44456365365129186
1.4322819120611043 1.7505202229024002 0.4543911186505354
1.4779264116539683 1.7223604109121637 0.4471498270284813
1.5571326466461566 1.7310833824927918 0.4494773707361044
-0.8125188215490909 1.0163669874801873 0.21728836620597086
-0.7976515904066164 1.0473150772202409 0.22392473732974882
-0.7811496524839655 1.0772576350766336 0.23034707230371052
-0.7721601096685228 1.1192263867571355 0.2393383004352741
-0.7582134644350582 1.15617789415609 0.2472591691778315
-0.7511384044362728 1.206153406965887 0.25796301826778556
-0.7300504458957464 1.2360798058087068 0.264385327721758
-0.7008274926180247 1.252977780411831 0.2680246568283338
-0.6641196791395925 1.255849432591919 0.2686668928777289
-0.629191789794234 1.2607272966163103 0.2697372777867243
-0.6157146664388324 1.309680365088572 0.28022703968688356
-0.5984765418304707 1.354620425541058 0.2898605293878315
-0.5665548454311871 1.3685088026343786 0.29285759692502294
-0.5279695598611491 1.3653738096151724 0.2922153608756278
-0.49023049373498734 1.3622418954947377 0.291573150346222
-0.4485550159954937 1.3450959505921811 0.2879338212396462
-0.4145565199633851 1.3479770787260918 0.2885760572890413
-0.3840581361481717 1.3618705531261617 0.291573150346222
-0.3527968412717502 1.3737612535186925 0.2941420690238131
-0.3331314610488931 1.4356928884646605 0.30741486231134757
-0.3135303714064568 1.5106247200168257 0.3234706359462787
-0.27851915794600646 1.7475037049369373 0.37420692656864163
-0.23586332189188816 1.7423544885096456 0.3731365416596462
-0.1878942951609695 1.686186377988454 0.36114822047090195
-0.14516600492701712 1.6560367790819626 0.3547259110169295
-0.11019256811809192 1.717914873444297 0.36799870430446396
-0.0683464003566179 1.685768254105516 0.36114822047090195
-0.027952417224894208 1.6466268207577757 0.35279922838873345
0.010718743289069101 1.6504915396841995 0.3536555261079341
0.04914628722896794 1.638357099592772 0.351086607430343
0.08785990637908346 1.6422216700182972 0.3519429051495436
0.12625493462658524 1.6380874087955333 0.351086607430343
0.1666384666862307 1.6549462295862831 0.3547259110169295
0.2075144859999567 1.6678033549149571 0.3575089168843154
0.2466156615247998 1.6626665710651312 0.35643853197532
0.28591148308820635 1.6585291592791591 0.3555822342561194
0.33209292232056553 1.6893677262350675 0.36221860537989736
0.36751715163283444 1.6622437129246368 0.35643853197532
0.40348165994200647 1.6411177694154846 0.3519429051495436
0.45009066533393555 1.6619549085234127 0.35643853197532
0.5000262476028341 1.6887803722364323 0.36221860537989736
0.5363262640774116 1.6666533216364072 0.3575089168843154
0.569374219235433 1.6365375801165032 0.351086607430343
0.6285881857062416 1.6793307225706078 0.3602919227517013
0.6737744766975796 1.6791726815823012 0.3602919227517013
0.7159807780799652 1.670024945244952 0.35836521460351606
0.7626776000473757 1.6698616211098525 0.35836521460351606
0.8122934790459879 1.6736881796245755 0.35922153784270594
0.8611821034430133 1.6735171895665921 0.35922153784270594
0.8999047066617423 1.65238159950235 0.3547259110169295
0.9431843674078159 1.6392301360778403 0.3519429051495436
1.0183251393951491 1.677967600880614 0.3602919227517013
1.0670045851267458 1.6687972244436249 0.35836521460351606
1.125399636247863 1.6725930774277917 0.35922153784270594
1.186535433490131 1.677379278171692 0.3602919227517013
1.2329822081106039 1.659216711817222 0.35643853197532
1.311171159957764 1.680943332346382 0.36114822047090195
1.3900384302952014 1.6986676074607576 0.36500161124728325
1.4659993540286609 1.708401982503238 0.3671423810652741
1.527660657684375 1.698186267825386 0.36500161124728325
-0.8229886603443506 1.0294035779369897 0.1751037781111866
-0.804557309663872 1.0563393482594992 0.179702819174002
-0.7869942027753248 1.0852781417852668 0.18464252468079959
-0.7874519506162951 1.1412800795733846 0.194181250944968
-0.7694460112313171 1.1732172443936244 0.19963194296501652
-0.745491375063634 1.1971336574584353 0.20371997720913637
-0.733026116236077 1.241090239156706 0.21121467619852255
-0.723939717408293 1.2940588757629272 0.22024241594943997
-0.7136994233598085 1.3490233438445722 0.22961079983889499
-0.7031739006615373 1.4079869065036243 0.23966053292175893
-0.6882588140619144 1.4629350242980759 0.24902891681121395
-0.6813684315343276 1.5409114706329758 0.26231501287552
-0.6801855945790423 1.640907969090485 0.27934845843451916
-0.6591475360773148 1.7018347501886624 0.2897388559613653
-0.6185678133418157 1.7156928454640035 0.2921235273746851
-0.5716226646008108 1.7105286269818558 0.2912718561120074
-0.5272108471580309 1.7103732947479597 0.2912718561120074
-0.4914469572717671 1.7382483774088469 0.29604121924409155
-0.44756867165222813 1.7380949112253565 0.29604121924409155
-0.39340059460877913 1.6919051708872002 0.2882058355052786
-0.35167946842359554 1.6917592494612341 0.2882058355052786
-0.3077666441760237 1.677605637883563 0.28582116409195885
-0.27608672326868694 1.732495119951898 0.29518954798141384
-0.23448177326510286 1.7323496048571037 0.29518954798141384
-0.18743707489786468 1.68218480587419 0.28667283535463656
-0.14471305775284404 1.6510351690662985 0.2813924654038568
-0.10838418546099537 1.690908313787466 0.2882058355052786
-0.06873738419806305 1.6947697395785972 0.28888718469868757
-0.027792740918635775 1.6386261971394183 0.27934845843451916
0.010690763060821406 1.64249157240261 0.2800297873224835
0.04914628722896794 1.638357099592772 0.27934845843451916
0.08765815942406238 1.6382224026701053 0.27934845843451916
0.1258850749511255 1.633088676582071 0.27849678717184145
0.16576021109997816 1.645949302542487 0.28071113651589247
0.20690797867679975 1.6628054503867793 0.28360681474790783
0.2454544588730044 1.6546705672775097 0.28224413666653453
0.2837124335307043 1.6455367595920265 0.28071113651589247
0.33209292232056553 1.6893677262350675 0.2882058355052786
0.36751715163283444 1.6622437129246368 0.28360681474790783
0.4044513620241488 1.6451144700177425 0.28071113651589247
0.4455456029480492 1.6449707411498302 0.28071113651589247
0.4921259631648633 1.661807888268658 0.28360681474790783
0.5347352913366608 1.6616588603181972 0.28360681474790783
0.569374219235433 1.6365375801165032 0.27934845843451916
0.62377094135715 1.6663474801319096 0.28445848601058554
0.677351104626729 1.6881601709532426 0.2882058355052786
0.7066361863310684 1.6480575386173852 0.2813924654038568
0.7586037720154719 1.6608758707175681 0.28360681474790783
0.8122934790459879 1.6736881796245755 0.28582116409195885
0.8637334753203744 1.6785082918476828 0.28667283535463656
0.9020651870086592 1.6563741353066197 0.2829254858599435
0.933482358948258 1.6222640053440494 0.27713410909046815
0.9773803459481377 1.610110432143692 0.27509010212113055
1.0422612187023896 1.6298836117661297 0.27849678717184145
1.1314092104952393 1.6815720574647695 0.2873541642426009
1.1682814317458867 1.651442940410393 0.28224413666653453
1.2233938891358758 1.6462501564163972 0.2813924654038568
1.3251084178220183 1.6988947029606738 0.29042018484932963
1.4249704955204583 1.7415456769045892 0.297744561769447
1.4941130093966162 1.7413038480005727 0.297744561769447
1.549094879867815 1.722111496146069 0.2945082190934495
-0.8173510326833695 1.0223838477958316 0.12988760894742712
-0.8099283636624687 1.0633581460478545 0.1351034688273743
-0.7869942027753248 1.0852781417852668 0.13790223178656769
-0.7665994477657103 1.111206872960302 0.14120983730100253
-0.7562312317612951 1.1531709218822883 0.14655291919376293
-0.7480011492741262 1.201142408468052 0.15265928766739115
-0.7318358622890602 1.2390860897091371 0.15749349667423587
-0.7194300068150957 1.2860430377133165 0.163472658300388
-0.7105007055833942 1.3430120775318994 0.17072396422798655
-0.6926050105388856 1.3869497852569064 0.1763214749810362
-0.6915778694666339 1.46994676434347 0.18688041675374378
-0.6764662061515772 1.5298942204159593 0.1945133735544448
-0.6714126231740843 1.619877129146411 0.2059628239208334
-0.6646132598768498 1.7158538913856265 0.21817556086808987
-0.6251119297623864 1.7337158505621804 0.22046545094136757
-0.5844351824064228 1.748573659336467 0.22237369014154285
-0.546505246576333 1.7724411931920734 0.2254268819610255
-0.5025857033304127 1.7772876085217881 0.22606296169441725
-0.4603264258089983 1.7871398565155125 0.22733512116120075
-0.40988045313793436 1.761963290497629 0.224154722494242
-0.35737023255562866 1.7187793879135762 0.2186844337540055
-0.3111210759099927 1.6956174869229177 0.21575846394733605
-0.2746272701948042 1.723490016671927 0.21932051348739726
-0.2319949824430175 1.7143407904290038 0.21817556086808987
-0.18640830886627718 1.673181089730579 0.21295970098814268
-0.14552836914582307 1.6600381386431675 0.2113059058135938
-0.10717859968435638 1.6729039804288934 0.21295970098814268
-0.0672169035650378 1.65976424093781 0.2113059058135938
-0.027792740918635775 1.6386261971394183 0.2086343648672136
0.010690763060821406 1.64249157240261 0.20914322258779217
0.04936192399172176 1.646356410537594 0.2096520954737078
0.08785990637908346 1.6422216700182972 0.20914322258779217
0.12655081883969294 1.6420863468946325 0.20914322258779217
0.16449161064973494 1.6329536485697456 0.20799828513382185
0.20484585667012123 1.6458125988228633 0.2096520954737078
0.2454544588730044 1.6546705672775097 0.21079703292767812
0.28235917071338407 1.6375414275430609 0.2086343648672136
0.33209292232056553 1.6893677262350675 0.2152495910614204
0.36860596830123993 1.6672399305552197 0.2124508432675641
0.402511986758749 1.6371211879221703 0.2086343648672136
0.4444761558815975 1.6409743894099276 0.20914322258779217
0.49592981415531595 1.674794675094037 0.21346857387405832
0.532189727365103 1.6536676983935912 0.21079703292767812
0.5676533875060925 1.6315435729856682 0.20799828513382185
0.6189536970080584 1.6533642376932114 0.21079703292767812
0.6737744766975796 1.6791726815823012 0.21410465360745007
0.7087599594846697 1.6530501364433288 0.21079703292767812
0.7509087335329137 1.6439027205203138 0.2096520954737078
0.8041141215909174 1.6567167233536735 0.2113059058135938
0.8545485243959737 1.660540299836303 0.21181476353417236
0.8950437385571026 1.6433986021661875 0.2096520954737078
0.9431843674078159 1.6392301360778403 0.20914322258779217
1.0129059343889477 1.6689864367919078 0.21295970098814268
1.0454334490456114 1.6348725425681416 0.2086343648672136
1.1227286524488946 1.6686023271312131 0.21295970098814268
1.1647710532330724 1.646455192296089 0.21016095319428638
1.2270816973627494 1.6512372839626759 0.21079703292767812
1.291039647311866 1.6550136804699038 0.2113059058135938
1.3941002960924982 1.703653426724661 0.21753948113469812
1.4779264116539683 1.7223604109121637 0.21995659322078903
1.524088340552827 1.6941987891907657 0.2163945436807278
-0.821377923299591 1.027397957831775 0.08675677011701201
-0.8007208294550311 1.051325904192112 0.08878617231582471
-0.7950303832218355 1.0963062339343437 0.09259129009845303
-0.7805010610926659 1.1312555977024732 0.09555082615160838
-0.7562312317612951 1.1531709218822883 0.09741111402055236
-0.7480011492741262 1.201142408468052 0.10146990833804843
-0.7318358622890602 1.2390860897091371 0.10468312092607154
-0.7211211566875182 1.289048991912552 0.10891103965356567
-0.7062358332846654 1.33499721502473 0.11280071964119301
-0.7016640506446399 1.4049815864083994 0.11871979174750373
-0.6901554252249629 1.466941749953688 0.12396240653433954
-0.6951837553393467 1.5719599980476004 0.13284102477393495
-0.6818566130367143 1.6449137865159282 0.13901377341511342
-0.6591475360773148 1.7018347501886624 0.14383359733721274
-0.6185678133418157 1.7156928454640035 0.14501740772642316
-0.5733085211490758 1.7155345491508678 0.14501740772642316
-0.5343684433521196 1.7333984713314436 0.14653945685550035
-0.5011576615829351 1.7722825880710853 0.1498372316485225
-0.4577228063122198 1.777130698617755 0.15026002251325898
-0.4122347146328121 1.7719715762550936 0.1498372316485225
-0.3544194613157665 1.7047689236608994 0.1441718259969502
-0.3146618513863674 1.7146299213441865 0.14501740772642316
-0.2746272701948042 1.723490016671927 0.1457784373310264
-0.22688325581778354 1.6773227447681227 0.14188875734339906
-0.18446510230848004 1.6561742293584396 0.14011303167945413
-0.14398834011434467 1.6430325691916778 0.13901377341511342
-0.10838418546099537 1.690908313787466 0.14307256773260948
-0.0672169035650378 1.65976424093781 0.1404512704193209
-0.027792740918635775 1.6386261971394183 0.13867554475537597
0.010704753383413777 1.6464916156476848 0.1393520121549802
0.04914628722896794 1.638357099592772 0.13867554475537597
0.08785990637908346 1.6422216700182972 0.13901377341511342
0.12655081883969294 1.6420863468946325 0.13901377341511342
0.16449161064973494 1.6329536485697456 0.13825275389063948
0.20484585667012123 1.6458125988228633 0.1393520121549802
0.2466156615247998 1.6626665710651312 0.14078949907905836
0.2865881044142933 1.662526765733897 0.14078949907905836
0.33035276256895263 1.6803738137380095 0.14231154820813555
0.36751715163283444 1.6622437129246368 0.14078949907905836
0.40542103520740624 1.6491110515110567 0.13969024081471765
0.44340674068661257 1.636978156768572 0.13867554475537597
0.48715171258399836 1.644825221999172 0.1393520121549802
0.5363262640774116 1.6666533216364072 0.14121228994379484
0.5735042071802767 1.6485231734172023 0.13969024081471765
0.6171009141179331 1.6483706920672134 0.13969024081471765
0.6650315715795406 1.6572031705299695 0.1404512704193209
0.7142817798109825 1.666030914597366 0.14121228994379484
0.749098101327521 1.6399089611071833 0.13901377341511342
0.8084443527858564 1.665701576964912 0.14121228994379484
0.8438327381792559 1.6395776226568157 0.13901377341511342
0.8907228422495106 1.6354136495424734 0.13867554475537597
0.9266338863905502 1.6102879200597304 0.13656159043169358
1.0104974466836034 1.6649948876140166 0.14121228994379484
1.053046786742957 1.6468459527038715 0.13969024081471765
1.1167190782015184 1.6596233470942354 0.14078949907905836
1.1682814317458867 1.651442940410393 0.14011303167945413
1.2233938891358758 1.6462501564163972 0.13969024081471765
1.2879424276182667 1.6510244209516247 0.14011303167945413
1.3794775598537252 1.685704453600347 0.14307256773260948
1.4617397123534515 1.7034168549689392 0.14459461686168668
1.5115850176629742 1.680242376294287 0.142649776867873
-0.8197671862548315 1.0253923377265601 0.04321671455127613
-0.8083937898727129 1.0613527923268864 0.04473605266353657
-0.7906470358211232 1.0902909435388348 0.04595996531815957
-0.7805010610926659 1.1312555977024732 0.04769031730208605
-0.7509453042200268 1.1451523689806524 0.04828117324844843
-0.7398442708929324 1.1881137884793553 0.05009593681834632
-0.7217185973210515 1.2220506402175706 0.05153086837572285
-0.7183025959667435 1.2840391080621771 0.054147506794736656
-0.7105007055833942 1.3430120775318994 0.05663752783479336
-0.705186994020314 1.4119939203506868 0.05954959171144462
-0.6996383114728227 1.4869750200086231 0.06271488028383512
-0.6831510299682786 1.5449176783141656 0.06516270056199361
-0.6747547098903003 1.6278888833814962 0.06866562038500726
-0.6556338165999879 1.6928223428139315 0.07140886612080319
-0.6218398932220781 1.7247044076938929 0.07275939112329581
-0.5746572305040821 1.7195393584964367 0.07254837222054226
-0.5390364360311459 1.7484148752763542 0.07377227984407776
-0.5097259120678005 1.8023127107753016 0.07605128701246842
-0.4655336648025552 1.8071581723110275 0.07626230591522196
-0.4110575838853732 1.7669674333763614 0.07457415469319369
-0.3544194613157665 1.7047689236608994 0.07195751627417989
-0.3180162831203364 1.732641770383541 0.07313922313581717
-0.27381645863569776 1.7184871550102472 0.07254837222054226
-0.22688325581778354 1.6773227447681227 0.0708180152055283
-0.18343634990329366 1.6471706324725064 0.0695519017890071
-0.14589072256551652 1.6640393789565833 0.07026936505215162
-0.10717859968435638 1.6729039804288934 0.07064919706467297
-0.0672169035650378 1.65976424093781 0.07010055194238378
-0.027453427875577516 1.6216248272435312 0.06849680224415193
0.010704753383413777 1.6464916156476848 0.0695519017890071
0.04936192399172176 1.646356410537594 0.0695519017890071
0.08806165934670976 1.6462210565554785 0.0695519017890071
0.12714259608405853 1.650084342272008 0.06972071489877492
0.16449161064973494 1.6329536485697456 0.06900325163563041
0.20278372020316748 1.628819628099504 0.06883443349477508
0.24603506885051854 1.6586686287460704 0.07010055194238378
0.28523484159697304 1.6545314336849313 0.06993173380152846
0.3268724200163375 1.6623858696144913 0.07026936505215162
0.36751715163283444 1.6622437129246368 0.07026936505215162
0.40348165994200647 1.6411177694154846 0.06938308364815177
0.4479518030724988 1.6539623241421544 0.06993173380152846
0.49095556357445097 1.657812008824551 0.07010055194238378
0.533462528316773 1.6576633388945694 0.07010055194238378
0.5721275582079505 1.6445280153391433 0.0695519017890071
0.6156187054753643 1.6443759031886227 0.0695519017890071
0.6666211734648432 1.6611975837960935 0.07026936505215162
0.7087599594846697 1.6530501364433288 0.06993173380152846
0.7509087335329137 1.6439027205203138 0.0695519017890071
0.8021895297826844 1.6527233625191355 0.06993173380152846
0.8591409694434221 1.6695242363433604 0.07064919706467297
0.8858618097586289 1.6264305332214857 0.06883443349477508
0.9477500384575086 1.6472142325914088 0.06972071489877492
1.0104974466836034 1.6649948876140166 0.07048038395490515
1.053046786742957 1.6468459527038715 0.06972071489877492
1.1113771902037544 1.6516419654326921 0.06993173380152846
1.1619627839004312 1.6424650413715638 0.0695519017890071
1.22044367772409 1.6422605019403738 0.0695519017890071
1.2747794977531066 1.6340703949386992 0.06921427053838394
1.3469826334753503 1.645817899489119 0.06972071489877492
1.4421453403359146 1.680485244540202 0.07119784721804966
1.5196228909060332 1.6892143814786633 0.07157768426165852
-0.813324142067148 1.0173697377598883 0.0
-0.8007208294550311 1.051325904192112 0.0
-0.7884553185755623 1.0872832385837696 0.0
-0.7707699649078575 1.1172215381828836 0.0
-0.7707674734250594 1.1752218527476566 0.0
-0.7599227637691213 1.220184274442802 0.0
-0.7401677818093322 1.2531153747584274 0.0
-0.7211211566875182 1.289048991912552 0.0
-0.7136994233598085 1.3490233438445722 0.0
-0.6926050105388856 1.3869497852569064 0.0
-0.6948968683488927 1.4769583849811556 0.0
-0.6951837553393467 1.5719599980476004 0.0
-0.6764257283479723 1.6318947008069393 0.0
-0.6607091581513066 1.7058401849955676 0.0
-0.6185678133418157 1.7156928454640035 0.0
-0.5733085211490758 1.7155345491508678 0.0
-0.5402812563376312 1.752419321265526 0.0
-0.5054417868253678 1.7872976494231936 0.0
-0.459024616060609 1.7821352775666337 0.0
-0.4122347146328121 1.7719715762550936 0.0
-0.3506256269362655 1.68675553779197 0.0
-0.31540729300253567 1.7186326207349978 0.0
-0.27089753315666 1.7004768291726742 0.0
-0.22453462644612024 1.6603144664123255 0.0
-0.18343634990329366 1.6471706324725064 0.0
-0.14516600492701712 1.6560367790819626 0.0
-0.10778139656481396 1.6819062067271517 0.0
-0.06647838025744064 1.6427614747869224 0.0
-0.027692943524643944 1.6336258222802376 0.0
0.010718743289069101 1.6504915396841995 0.0
0.04936192399172176 1.646356410537594 0.0
0.08806165934670976 1.6462210565554785 0.0
0.12625493462658524 1.6380874087955333 0.0
0.16293025445974535 1.6169589791926282 0.0
0.19926598351296737 1.59983182949985 0.0
0.2454544588730044 1.6546705672775097 0.0
0.28523484159697304 1.6545314336849313 0.0
0.3268724200163375 1.6623858696144913 0.0
0.37034808016257614 1.6752339025879974 0.0
0.4044513620241488 1.6451144700177425 0.0
0.45009066533393555 1.6619549085234127 0.0
0.48832211217441074 1.648821101443279 0.0
0.532189727365103 1.6536676983935912 0.0
0.5721275582079505 1.6445280153391433 0.0
0.6141364526589669 1.6403809952545132 0.0
0.6650315715795406 1.6572031705299695 0.0
0.7142817798109825 1.666030914597366 0.0
0.7509087335329137 1.6439027205203138 0.0
0.7997838330396441 1.6477317507330222 0.0
0.8657745484904616 1.6825011260736495 0.0
0.8950437385571026 1.6433986021661875 0.0
0.9409015658998009 1.6352381473070898 0.0
0.9972506207453075 1.64304112921768 0.0
1.0454334490456114 1.6348725425681416 0.0
1.114048174002723 1.6556327157292707 0.0
1.1619627839004312 1.6424650413715638 0.0
1.2145431669762354 1.6342810740858278 0.0
1.264713695278769 1.6211055095568672 0.0
1.3648548236149527 1.6677554804760328 0.0
1.4498127562860124 1.6894585454148292 0.0
1.5160504673097677 1.6852267840063893 0.0
-0.81574029563861 1.0203782276906168 -0.0430056956485226
-0.8030227358741163 1.0543339945385313 -0.04444062720589913
-0.7826107682842031 1.0792627318751367 -0.045495721719666794
-0.7735502544291881 1.1212312353313876 -0.047268279496578976
-0.7496238420262843 1.1431477606266203 -0.04819676669356452
-0.7511384044362728 1.206153406965887 -0.050855605874476545
-0.7258845216083989 1.2290652230131387 -0.05182629383336029
-0.7121017355011237 1.2730173158133309 -0.05368326319624389
-0.7105007055833942 1.3430120775318994 -0.05663752783479336
-0.7177690374973722 1.4370381748643233 -0.06060469125629978
-0.7029573103550817 1.4939866406463087 -0.06301030574147257
-0.6934011037791387 1.5679536709705808 -0.06613338852087736
-0.6764257283479723 1.6318947008069393 -0.06883443349477508
-0.6486064241858975 1.6747976474372661 -0.07064919706467297
-0.6287475451804864 1.7437286179098785 -0.07356126094132423
-0.5716226646008108 1.7105286269818558 -0.07216853517693342
-0.5433932514569821 1.7624302572287998 -0.07436313579044015
-0.5025857033304127 1.7772876085217881 -0.07499619249870076
-0.4616282355573875 1.7921444354643912 -0.07562924920696136
-0.4030530779637823 1.7329391902160756 -0.07313922313581717
-0.3506256269362655 1.68675553779197 -0.07119784721804966
-0.31373006602779346 1.7096266365714612 -0.07216853517693342
-0.2679786076776221 1.6824665033351012 -0.07102903410828183
-0.22453462644612024 1.6603144664123255 -0.07010055194238378
-0.18492233619798598 1.6601759207303814 -0.07010055194238378
-0.14516600492701712 1.6560367790819626 -0.06993173380152846
-0.10778139656481396 1.6819062067271517 -0.07102903410828183
-0.06591362927228504 1.6297594085890037 -0.06883443349477508
-0.02695444090561839 1.5966229529476275 -0.06744170773038427
0.010704753383413777 1.6464916156476848 -0.0695519017890071
0.049254104003729024 1.6423566954657929 -0.06938308364815177
0.08806165934670976 1.6462210565554785 -0.0695519017890071
0.12625493462658524 1.6380874087955333 -0.06921427053838394
0.16214957636475058 1.6089616445040695 -0.06799035788376095
0.2003576909105398 1.6088280099867929 -0.06799035788376095
0.24734141101926782 1.667664058538707 -0.07048038395490515
0.2830357920394709 1.6415390339977987 -0.06938308364815177
0.32609902080437386 1.658388601644555 -0.07010055194238378
0.37230793978193116 1.684227046675357 -0.07119784721804966
0.40542103520740624 1.6491110515110567 -0.06972071489877492
0.44902125013895056 1.657958675882057 -0.07010055194238378
0.4897851291029637 1.653816010292423 -0.06993173380152846
0.5267804276329068 1.6366865537271473 -0.06921427053838394
0.5649000485335749 1.6235531377630281 -0.06866562038500726
0.6141364526589669 1.6403809952545132 -0.06938308364815177
0.6666211734648432 1.6611975837960935 -0.07026936505215162
0.7142817798109825 1.666030914597366 -0.07048038395490515
0.749098101327521 1.6399089611071833 -0.06938308364815177
0.7959347067795125 1.639745148073359 -0.06938308364815177
0.8525074512258864 1.6565474656103363 -0.07010055194238378
0.8999047066617423 1.65238159950235 -0.06993173380152846
0.933482358948258 1.6222640053440494 -0.06866562038500726
0.9870143685489661 1.6260767478142246 -0.06883443349477508
1.0422612187023896 1.6298836117661297 -0.06900325163563041
1.1053676159563781 1.6426629853957144 -0.0695519017890071
1.1682814317458867 1.651442940410393 -0.06993173380152846
1.2145431669762354 1.6342810740858278 -0.06921427053838394
1.2709080423631904 1.6290839097062397 -0.06900325163563041
1.3404836288311717 1.637840564892612 -0.06938308364815177
1.4421453403359146 1.680485244540202 -0.07119784721804966
1.5035472508846326 1.6712704899475646 -0.0708180152055283
-0.8173510326833695 1.0223838477958316 -0.08633397925227553
-0.7968843492461902 1.0463124601247245 -0.08836338145108823
-0.7840718840844404 1.0812678286736397 -0.09132291750424358
-0.7693798201471923 1.1152166896086315 -0.09419790143252925
-0.7509453042200268 1.1451523689806524 -0.09673464662094812
-0.7410991579981784 1.1901181639841636 -0.10053976440357644
-0.7371921114690017 1.2481049414104282 -0.10544415053067481
-0.7267582781290678 1.2990687596133021 -0.10975662138303863
-0.7046364743964583 1.3319915818683936 -0.11254704310632527
-0.6895853705007206 1.3809392644863125 -0.11669039962882036
-0.6806725389771027 1.4469084798987528 -0.12227124307539362
-0.6715640338950838 1.518877089594773 -0.1283594395917024
-0.6714126231740843 1.619877129146411 -0.136899819091431
-0.6646132598768498 1.7158538913856265 -0.14501740772642316
-0.6356552404788489 1.762752947487466 -0.14899164991904953
-0.5733085211490758 1.7155345491508678 -0.14501740772642316
-0.5433932514569821 1.7624302572287998 -0.14899164991904953
-0.5025857033304127 1.7772876085217881 -0.15026002251325898
-0.46293004530577675 1.79714901441327 -0.1519511859722049
-0.4021113845918355 1.7289359236363608 -0.1462012281957629
-0.34978256379662653 1.6827526161757176 -0.14231154820813555
-0.3103756342938244 1.6916147875321066 -0.14307256773260948
-0.26716779611851565 1.6774636416734214 -0.14188875734339906
-0.22273860993742756 1.6473080938104967 -0.1393520121549802
-0.18343634990329366 1.6471706324725064 -0.1393520121549802
-0.14516600492701712 1.6560367790819626 -0.14011303167945413
-0.10691069528255934 1.6689030704549634 -0.14121228994379484
-0.06395872560125257 1.5847523389079916 -0.1341093973681444
-0.027792740918635775 1.6386261971394183 -0.13867554475537597
0.010718743289069101 1.6504915396841995 -0.13969024081471765
0.04936192399172176 1.646356410537594 -0.1393520121549802
0.08765815942406238 1.6382224026701053 -0.13867554475537597
0.12499740467550194 1.6210916239264193 -0.13723804775116846
0.16332058769074947 1.6209575869522417 -0.13723804775116846
0.20181330559406138 1.620822957022531 -0.13723804775116846
0.2454544588730044 1.6546705672775097 -0.14011303167945413
0.2837124335307043 1.6455367595920265 -0.1393520121549802
0.3268724200163375 1.6623858696144913 -0.14078949907905836
0.3714368968309816 1.6802301202185803 -0.14231154820813555
0.402511986758749 1.6371211879221703 -0.13867554475537597
0.4479518030724988 1.6539623241421544 -0.14011303167945413
0.48715171258399836 1.644825221999172 -0.1393520121549802
0.5251894548921558 1.6316920924089373 -0.13825275389063948
0.5635233585333839 1.6195578606184469 -0.13723804775116846
0.6033903295657714 1.611418478245933 -0.13656159043169358
0.6686081995086901 1.6661906599009109 -0.14121228994379484
0.7104590083883985 1.6570442861238364 -0.1404512704193209
0.749098101327521 1.6399089611071833 -0.13901377341511342
0.7997838330396441 1.6477317507330222 -0.13969024081471765
0.8570998962733348 1.665531402117394 -0.14121228994379484
0.9188085716694956 1.6873156631193775 -0.14307256773260948
0.9311994894065805 1.6182718976012311 -0.13723804775116846
0.9719611409419363 1.6011292680549862 -0.1358005608270903
1.034647805373107 1.617910082684907 -0.13723804775116846
1.1053676159563781 1.6426629853957144 -0.1393520121549802
1.1591544308737645 1.6384747715297434 -0.13901377341511342
1.1961041258418668 1.6093454363544333 -0.13656159043169358
1.2585193481943475 1.6131271094074948 -0.136899819091431
1.3169248459438574 1.6089228607104948 -0.13656159043169358
1.4344780259436851 1.6715120625203908 -0.14188875734339906
1.508012700531426 1.6762548976596667 -0.14231154820813555
-0.8173510326833695 1.0223838477958316 -0.12988760894742712
-0.7968843492461902 1.0463124601247245 -0.13294080076690978
-0.7811496524839655 1.0772576350766336 -0.13688450118007348
-0.77633062681067 1.1252410519797174 -0.1429908696537017
-0.7549097695675528 1.1511663135282562 -0.14629849033347364
-0.745491375063634 1.1971336574584353 -0.15215042994681258
-0.7300504458957464 1.2360798058087068 -0.1571118458011334
-0.7256308000809272 1.2970647105171098 -0.16487202461464762
-0.7089014102475548 1.3400065638078589 -0.17034232852022116
-0.6956247105726803 1.392960425447356 -0.17708477672724116
-0.6901554252249629 1.466941749953688 -0.18649876588064132
-0.6831510299682786 1.5449176783141656 -0.19642161275462006
-0.6626396517691263 1.5988462892023365 -0.20329128297445323
-0.6591475360773148 1.7018347501886624 -0.2163945436807278
-0.6374730481878988 1.767759331161315 -0.22479080222763376
-0.566902282343265 1.6965120926488617 -0.21575846394733605
-0.5390364360311459 1.7484148752763542 -0.22237369014154285
-0.4997296198354575 1.7672775676203827 -0.22479080222763376
-0.46423185505416603 1.8021535933621486 -0.229243360361376
-0.40093425384439657 1.7239317807576284 -0.21932051348739726
-0.3487287223092964 1.6777489045064538 -0.21346857387405832
-0.30944384893525057 1.686611502759381 -0.21461351132802864
-0.26441104068380805 1.6604539358792365 -0.2113059058135938
-0.2203899640964055 1.6302996961870784 -0.2074894122479062
-0.18195036360860134 1.6341653442146313 -0.20799828513382185
-0.14516600492701712 1.6560367790819626 -0.21079703292767812
-0.10691069528255934 1.6689030704549634 -0.2124508432675641
-0.06413249274496301 1.588752919632829 -0.202273552367959
-0.026874603942167945 1.592622700747619 -0.20278242525387466
0.010718743289069101 1.6504915396841995 -0.21016095319428638
0.04914628722896794 1.638357099592772 -0.2086343648672136
0.0857415393009412 1.6002288861063259 -0.20380015586036887
0.12255632905383766 1.5880999674817315 -0.202273552367959
0.16010029781951257 1.5879686558427695 -0.202273552367959
0.19683993976006445 1.5798400922276954 -0.20125582176146478
0.24414811670425512 1.645675137484873 -0.2096520954737078
0.28591148308820635 1.6585291592791591 -0.2113059058135938
0.33035276256895263 1.6803738137380095 -0.21410465360745007
0.37230793978193116 1.684227046675357 -0.21461351132802864
0.40129988083023477 1.6321254015010556 -0.20799828513382185
0.4455456029480492 1.6449707411498302 -0.2096520954737078
0.4848108785220987 1.636833344022937 -0.2086343648672136
0.5267804276329068 1.6366865537271473 -0.2086343648672136
0.5635233585333839 1.6195578606184469 -0.20647168164141197
0.601908076749374 1.6074235703118236 -0.2049450933143392
0.6546990172017615 1.631239127167189 -0.20799828513382185
0.7104590083883985 1.6570442861238364 -0.2113059058135938
0.7527193117781751 1.6478963609121533 -0.21016095319428638
0.7959347067795125 1.639745148073359 -0.20914322258779217
0.8545485243959737 1.660540299836303 -0.21181476353417236
0.911247051420891 1.6733420852664966 -0.21346857387405832
0.9409015658998009 1.6352381473070898 -0.2086343648672136
0.979788833653482 1.6141019813215836 -0.2059628239208334
1.034647805373107 1.617910082684907 -0.20647168164141197
1.0966870579100334 1.6296932550621583 -0.20799828513382185
1.1647710532330724 1.646455192296089 -0.21016095319428638
1.2020045486654378 1.6173247453064796 -0.20647168164141197
1.2585193481943475 1.6131271094074948 -0.2059628239208334
1.313675295200508 1.6049341339765872 -0.2049450933143392
1.4165874902846585 1.6505744793344097 -0.21079703292767812
1.5035472508846326 1.6712704899475646 -0.21346857387405832
-0.8294317045320342 1.0374261779036618 -0.17646645619255988
-0.8129976027108833 1.0673689730197253 -0.18157650407407083
-0.7869942027753248 1.0852781417852668 -0.18464252468079959
-0.7721601096685228 1.1192263867571355 -0.19043388114483029
-0.760856388822543 1.1601871108641546 -0.1974175936209655
-0.7480011492741262 1.201142408468052 -0.20440130609710072
-0.7258845216083989 1.2290652230131387 -0.20917066922918492
-0.7194300068150957 1.2860430377133165 -0.2188797378680667
-0.7105007055833942 1.3430120775318994 -0.22858878620150389
-0.6910951605219883 1.3839444651616815 -0.23557249867763908
-0.6854139821010327 1.4569251149262203 -0.24800692347926742
-0.680031456145736 1.5379067551741687 -0.26180400605682447
-0.6801855945790423 1.640907969090485 -0.27934845843451916
-0.6661749284914052 1.7198594455653278 -0.29280487656809406
-0.6447442790240987 1.787784865856711 -0.30438760980160007
-0.5857838917614293 1.7525784686820358 -0.298425910962856
-0.5418372538973066 1.7574247892471628 -0.2992775822255337
-0.5025857033304127 1.7772876085217881 -0.3026842672762446
-0.46293004530577675 1.79714901441327 -0.30609095232695555
-0.40423020871122123 1.737943333094808 -0.29604121924409155
-0.35167946842359554 1.6917592494612341 -0.2882058355052786
-0.30627578315920245 1.669600358389659 -0.28445848601058554
-0.2616542659178281 1.6434441108074211 -0.2800297873224835
-0.22218598060509817 1.6433060687889072 -0.2800297873224835
-0.18149312971909543 1.6301636528426895 -0.2778154379784325
-0.1436259866946512 1.6390313288782623 -0.27934845843451916
-0.10657581078817496 1.663901873368579 -0.28360681474790783
-0.06348085818795218 1.5737505630724917 -0.2682767117142641
-0.026415535453934047 1.5696209525517195 -0.2675953828262998
0.010676773155166082 1.6384916483660952 -0.27934845843451916
0.049254104003729024 1.6423566954657929 -0.2800297873224835
0.0859432862559623 1.6042281534545175 -0.2735570816650439
0.12174264305871638 1.5771028281196202 -0.26895806090767305
0.15824619752276317 1.5689750902306079 -0.2675953828262998
0.19926598351296737 1.59983182949985 -0.27287575277707954
0.24414811670425512 1.645675137484873 -0.28071113651589247
0.28591148308820635 1.6585291592791591 -0.2829254858599435
0.33209292232056553 1.6893677262350675 -0.2882058355052786
0.37339675645033665 1.68922326430594 -0.2882058355052786
0.4044513620241488 1.6451144700177425 -0.28071113651589247
0.4479518030724988 1.6539623241421544 -0.28224413666653453
0.48832211217441074 1.648821101443279 -0.2813924654038568
0.5251894548921558 1.6316920924089373 -0.27849678717184145
0.5662766975059015 1.6275482958410872 -0.2778154379784325
0.5985730852166797 1.598435235807235 -0.27287575277707954
0.6467509130263739 1.6112668227479197 -0.27509010212113055
0.7121580066573812 1.6610383167714224 -0.28360681474790783
0.7549825615648176 1.6528884709125982 -0.28224413666653453
0.8021895297826844 1.6527233625191355 -0.28224413666653453
0.8570998962733348 1.665531402117394 -0.28445848601058554
0.928530572265017 1.7052817767765278 -0.2912718561120074
0.9551692454090515 1.6601883745544495 -0.28360681474790783
0.9719611409419363 1.6011292680549862 -0.2735570816650439
1.02386223733254 1.6009477417471654 -0.2735570816650439
1.0913451699122696 1.621711873400615 -0.27713410909046815
1.1563461615411232 1.6344846206052184 -0.27934845843451916
1.2079050594132923 1.6253041731610258 -0.2778154379784325
1.2523250011099258 1.6051487092581223 -0.2744087529277216
1.3031144247590323 1.5919709801161768 -0.2721944035836706
1.423402937276567 1.6585507071602508 -0.28360681474790783
1.4999748272883673 1.6672828924752903 -0.2851398148985499
-0.8109079884956859 1.0143612478291595 -0.2168601918263813
-0.7991862556652755 1.049320550471144 -0.22435291170933838
-0.7855329998846778 1.0832729254721427 -0.23163151888251146
-0.7888420953769605 1.1432849281476367 -0.24447616331044558
-0.7562312317612951 1.1531709218822883 -0.2466169331284364
-0.7410991579981784 1.1901181639841636 -0.25453777635100455
