x y z
2.430538 2.760608 79.500526
2.205637 2.760608 79.500526
-2.205635 2.760608 79.500526
-2.430537 2.760608 79.500526
-2.430537 2.998661 79.500526
-2.430537 -2.998659 79.500526
-2.430537 -2.760608 79.500526
-2.205635 -2.760608 79.500526
2.760608 2.205637 79.500526
2.760608 2.430538 79.500526
2.998660 2.430538 79.500519
2.998661 0.415904 79.500526
2.760608 0.415904 79.500526
2.760608 0.645490 79.500526
-2.205635 -2.205635 79.500526
-2.760608 -2.205635 79.500526
-2.760608 -0.645490 79.500526
2.998660 -2.430536 79.500526
2.760608 -2.430537 79.500526
2.998661 -0.415904 79.500526
2.760608 -2.205635 79.500526
0.415904 -2.760608 79.500526
0.645490 2.205637 79.500526
2.205637 2.205637 79.500526
-2.760608 -0.415904 79.500526
-2.998659 -0.415904 79.500526
-2.998660 -2.430537 79.500526
-2.760608 -2.430537 79.500526
-0.645490 0.645490 79.500526
-0.645490 -0.645490 79.500526
-2.205635 0.645490 79.500526
-2.205635 -0.645490 79.500526
-2.998660 2.430537 79.500526
-2.760608 2.430538 79.500526
-2.998659 0.415904 79.500526
-2.760608 2.205637 79.500526
-0.645490 -2.205635 79.500526
0.645490 -0.645490 79.500526
2.760608 -0.415904 79.500526
2.760608 -0.645490 79.500526
2.205637 -0.645490 79.500526
0.645490 0.645490 79.500526
2.205637 0.645490 79.500526
-0.415904 2.998661 79.500526
-0.415904 2.760608 79.500526
-0.645490 2.760608 79.500526
-0.645490 2.205637 79.500526
-2.205635 2.205637 79.500526
-2.760608 0.645490 79.500526
-2.760608 0.415904 79.500526
2.747034 0.623369 79.738197
2.747034 0.415904 79.738197
2.985077 0.415904 79.738197
-0.623369 2.747034 79.738197
-0.415904 2.747034 79.738197
-0.415904 2.985077 79.738197
-2.747033 -0.623369 79.738197
-2.747033 -0.415904 79.738197
-2.985074 -0.415904 79.738197
0.415904 -2.747033 79.738197
0.415904 2.985077 79.738197
0.415904 2.747034 79.738197
2.415995 2.985077 79.738197
0.623369 2.747034 79.738197
2.415995 2.747034 79.738197
2.205290 2.747034 79.738197
2.205290 2.205290 79.738197
0.623369 2.205290 79.738197
-0.623369 2.205290 79.738197
-0.623369 0.623369 79.738197
0.623369 0.623369 79.738197
-2.415992 2.985077 79.738197
-2.415992 2.747034 79.738197
-2.205290 2.747034 79.738197
-2.985074 0.415904 79.738197
-2.747033 0.415904 79.738197
-2.985074 2.415995 79.738197
-2.747033 0.623369 79.738197
-2.205290 2.205290 79.738197
-2.747033 2.415995 79.738197
-2.747033 2.205290 79.738197
-2.205290 0.623369 79.738197
-2.205290 -0.623369 79.738197
-0.623369 -0.623369 79.738197
-2.985074 -2.415992 79.738197
-2.747033 -2.415992 79.738197
-2.747033 -2.205290 79.738197
-0.415904 -2.985074 79.738197
-0.415904 -2.747033 79.738197
-2.415992 -2.985074 79.738197
-0.623369 -2.747033 79.738197
2.985077 -0.415904 79.738197
2.747034 -0.415904 79.738197
2.985077 -2.415992 79.738197
2.747034 -0.623369 79.738197
-2.205290 -2.205290 79.738197
-2.415992 -2.747033 79.738197
-2.205290 -2.747033 79.738197
-0.623369 -2.205290 79.738197
0.623369 -0.623369 79.738197
2.415995 -2.747033 79.738197
2.747034 -2.415992 79.738197
2.747034 -2.205290 79.738197
2.205290 -0.623369 79.738197
2.205290 0.623369 79.738197
2.985077 2.415995 79.738197
2.747034 2.415995 79.738197
2.747034 2.205290 79.738197
0.633864 2.592615 82.615044
0.415904 2.592615 82.615044
0.415904 2.830579 82.615044
-0.633864 -2.592615 82.615044
-0.415904 -2.592615 82.615044
-0.415904 -2.830578 82.615044
2.249291 -2.592615 82.615044
2.249291 2.830579 82.615044
2.249291 2.592615 82.615044
2.035306 2.592615 82.615044
-2.035306 2.592615 82.615044
-2.249290 2.592615 82.615044
-2.249290 2.830579 82.615044
-2.249290 -2.830578 82.615044
-2.249290 -2.592615 82.615044
-2.035306 -2.592615 82.615044
2.592615 -0.633864 82.615044
2.592615 -0.415904 82.615044
2.830579 -0.415904 82.615044
2.830579 0.415904 82.615044
2.592615 0.415904 82.615044
2.830579 2.249291 82.615044
2.592615 0.633864 82.615044
-2.592615 0.633864 82.615044
-2.592615 0.415904 82.615044
-2.830578 0.415904 82.615044
0.415904 -2.592615 82.615044
0.633864 2.035306 82.615044
2.035306 2.035306 82.615044
-2.592615 -2.035306 82.615044
-2.592615 -2.249290 82.615044
-2.830578 -2.249290 82.615044
2.830579 -2.249290 82.615044
2.592615 -2.249290 82.615044
2.592615 -2.035306 82.615044
-2.035306 -2.035306 82.615044
-2.592615 -0.633864 82.615044
-2.592615 -0.415904 82.615044
-2.830578 -0.415904 82.615044
-0.633864 -2.035306 82.615044
-2.035306 -0.633864 82.615044
-0.633864 0.633864 82.615044
-0.633864 -0.633864 82.615044
-2.035306 0.633864 82.615044
-2.830578 2.249291 82.615044
-2.592615 2.249291 82.615044
-2.592615 2.035306 82.615044
2.035306 -0.633864 82.615044
0.633864 -0.633864 82.615044
0.633864 0.633864 82.615044
2.035306 0.633864 82.615044
-0.415904 2.830579 82.615044
-0.415904 2.592615 82.615044
-0.633864 2.592615 82.615044
-0.633864 2.035306 82.615044
-2.035306 2.035306 82.615044
2.592615 2.249291 82.615044
2.592615 2.035306 82.615044
-0.614232 2.580655 82.852722
-0.415904 2.580655 82.852722
-0.415904 2.818612 82.852722
-2.580654 2.035306 82.852722
-2.580654 2.236280 82.852722
-2.818612 2.236282 82.852730
0.415904 -2.580654 82.852722
0.415904 2.818612 82.852722
0.415904 2.580655 82.852722
2.236280 2.818612 82.852722
0.614232 2.580655 82.852722
2.580655 -2.035306 82.852722
2.580655 -2.236280 82.852722
2.818613 -2.236282 82.852722
2.236280 2.580655 82.852722
2.035306 2.580655 82.852722
2.035306 2.035306 82.852722
0.614232 2.035306 82.852722
-0.614232 2.035306 82.852722
-0.614232 0.614232 82.852722
0.614232 0.614232 82.852722
-2.236280 2.818612 82.852722
-2.236280 2.580655 82.852722
-2.035306 2.580655 82.852722
-2.818612 0.415904 82.852722
-2.580654 0.415904 82.852722
-2.580654 0.614232 82.852722
-2.035306 2.035306 82.852722
-2.035306 0.614232 82.852722
-2.035306 -0.614232 82.852722
-0.614232 -0.614232 82.852722
-2.818612 -2.236283 82.852730
-2.580654 -2.236280 82.852722
-2.818612 -0.415904 82.852722
-2.580654 -2.035306 82.852722
-0.415904 -2.818612 82.852722
-0.415904 -2.580654 82.852722
-2.236280 -2.818612 82.852722
-0.614232 -2.580654 82.852722
2.818612 -0.415904 82.852722
2.580655 -0.415904 82.852722
2.580655 -0.614232 82.852722
-2.580654 -0.415904 82.852722
-2.580654 -0.614232 82.852722
-2.035306 -2.035306 82.852722
-2.236280 -2.580654 82.852722
-2.035306 -2.580654 82.852722
-0.614232 -2.035306 82.852722
0.614232 -0.614232 82.852722
2.236280 -2.580654 82.852722
2.035306 -0.614232 82.852722
2.035306 0.614232 82.852722
2.818613 2.236283 82.852722
2.580655 2.236280 82.852722
2.818612 0.415904 82.852722
2.580655 2.035306 82.852722
2.580655 0.415904 82.852722
2.580655 0.614232 82.852722
0.623369 2.444988 85.729599
0.415904 2.444988 85.729599
0.415904 2.682882 85.729599
-0.623369 -2.444986 85.729599
-0.415904 -2.444986 85.729599
-0.415904 -2.682878 85.729599
2.087726 -2.444986 85.729599
2.087726 2.682882 85.729599
2.087726 2.444988 85.729599
1.883610 2.444988 85.729599
-1.883610 2.444988 85.729599
-2.087724 2.444988 85.729599
-2.087724 2.682882 85.729599
-2.087724 -2.682878 85.729599
-2.087724 -2.444986 85.729599
-1.883610 -2.444986 85.729599
2.444988 -0.623369 85.729599
2.444988 -0.415904 85.729599
2.682882 -0.415904 85.729599
2.682882 0.415904 85.729599
2.444988 0.415904 85.729599
2.682882 2.087726 85.729599
2.444988 0.623369 85.729599
-2.444986 0.623369 85.729599
-2.444986 0.415904 85.729599
-2.682878 0.415904 85.729599
0.415904 -2.444986 85.729599
0.623369 1.883610 85.729599
1.883610 1.883610 85.729599
-2.444986 -1.883610 85.729599
-2.444986 -2.087724 85.729599
-2.682878 -2.087724 85.729599
2.682881 -2.087722 85.729599
2.444988 -2.087724 85.729599
2.444988 -1.883610 85.729599
-1.883610 -1.883610 85.729599
-2.444986 -0.623369 85.729599
-2.444986 -0.415904 85.729599
-2.682878 -0.415904 85.729599
-0.623369 -1.883610 85.729599
-1.883610 -0.623369 85.729599
-0.623369 0.623369 85.729599
-0.623369 -0.623369 85.729599
-1.883610 0.623369 85.729599
-2.682878 2.087724 85.729599
-2.444986 2.087726 85.729599
-2.444986 1.883610 85.729599
1.883610 -0.623369 85.729599
0.623369 -0.623369 85.729599
0.623369 0.623369 85.729599
1.883610 0.623369 85.729599
-0.415904 2.682882 85.729599
-0.415904 2.444988 85.729599
-0.623369 2.444988 85.729599
-0.623369 1.883610 85.729599
-1.883610 1.883610 85.729599
2.444988 2.087726 85.729599
2.444988 1.883610 85.729599
2.434508 0.606352 85.967201
2.434508 0.415904 85.967201
2.672399 0.415904 85.967201
-0.606352 2.434508 85.967201
-0.415904 2.434508 85.967201
-0.415904 2.672399 85.967201
-2.434508 -0.606352 85.967201
-2.434508 -0.415904 85.967201
-2.672396 -0.415904 85.967201
0.415904 -2.434508 85.967201
0.415904 2.672399 85.967201
0.415904 2.434508 85.967201
2.076182 2.672399 85.967201
0.606352 2.434508 85.967201
-2.672396 0.415904 85.967201
-2.434508 0.415904 85.967201
-2.672396 2.076182 85.967201
-2.434508 0.606352 85.967201
2.076182 2.434508 85.967201
1.883610 2.434508 85.967201
1.883610 1.883610 85.967201
0.606352 1.883610 85.967201
-0.606352 1.883610 85.967201
-0.606352 0.606352 85.967201
0.606352 0.606352 85.967201
-2.076182 2.672399 85.967201
-2.076182 2.434508 85.967201
-1.883610 2.434508 85.967201
2.672399 -0.415904 85.967201
2.434508 -0.415904 85.967201
2.672399 -2.076182 85.967201
2.434508 -0.606352 85.967201
-1.883610 1.883610 85.967201
-0.415904 -2.672396 85.967201
-0.415904 -2.434508 85.967201
-2.076182 -2.672396 85.967201
-0.606352 -2.434508 85.967201
-2.672397 -2.076183 85.967194
-2.434508 -2.076182 85.967201
-2.434508 -1.883610 85.967201
-2.076182 -2.434508 85.967201
-1.883610 -2.434508 85.967201
-1.883610 -1.883610 85.967201
-0.606352 -1.883610 85.967201
0.606352 -0.606352 85.967201
-0.606352 -0.606352 85.967201
2.076182 -2.434508 85.967201
-2.434508 2.076182 85.967201
-2.434508 1.883610 85.967201
-1.883610 0.606352 85.967201
-1.883610 -0.606352 85.967201
2.672398 2.076184 85.967201
2.434508 2.076182 85.967201
2.434508 1.883610 85.967201
2.434508 -2.076182 85.967201
2.434508 -1.883610 85.967201
1.883610 -0.606352 85.967201
1.883610 0.606352 85.967201
0.614232 2.316002 88.844078
0.415904 2.316002 88.844078
0.415904 2.553840 88.844078
1.945149 -2.316001 88.844078
-0.415904 -2.316001 88.844078
-0.415904 -2.553838 88.844078
-0.614232 -2.316001 88.844078
-1.945147 -2.553838 88.844078
1.945149 2.553840 88.844078
1.945149 2.316002 88.844078
1.749632 2.316002 88.844078
-1.749630 2.316002 88.844078
-1.945147 2.316002 88.844078
-1.945147 2.553840 88.844078
-1.945147 -2.316001 88.844078
-1.749630 -2.316001 88.844078
2.316002 1.749632 88.844078
2.316002 1.945149 88.844078
2.553840 1.945149 88.844078
2.553840 0.415904 88.844078
2.316002 0.415904 88.844078
2.316002 0.614232 88.844078
-2.316001 -1.749630 88.844078
-2.316001 -1.945147 88.844078
-2.553838 -1.945147 88.844078
2.553840 -1.945147 88.844078
2.316002 -1.945147 88.844078
2.553840 -0.415904 88.844078
2.316002 -1.749630 88.844078
0.415904 -2.316001 88.844078
0.614232 1.749632 88.844078
1.749632 1.749632 88.844078
-2.553838 -0.415904 88.844078
-2.316001 -0.415904 88.844078
-2.316001 -0.614232 88.844078
-0.614232 0.614232 88.844078
-0.614232 -0.614232 88.844078
-1.749630 0.614232 88.844078
-1.749630 -0.614232 88.844078
-2.553838 1.945149 88.844078
-2.316001 1.945149 88.844078
-2.553838 0.415904 88.844078
-2.316001 1.749632 88.844078
-1.749630 -1.749630 88.844078
-0.614232 -1.749630 88.844078
0.614232 -0.614232 88.844078
2.316002 -0.415904 88.844078
2.316002 -0.614232 88.844078
1.749632 -0.614232 88.844078
0.614232 0.614232 88.844078
1.749632 0.614232 88.844078
-0.415904 2.553840 88.844078
-0.415904 2.316002 88.844078
-0.614232 2.316002 88.844078
-0.614232 1.749632 88.844078
-1.749630 1.749632 88.844078
-2.316001 0.614232 88.844078
-2.316001 0.415904 88.844078
1.545199 -0.671451 104.188004
1.549194 -0.985386 103.341003
1.920704 -0.985386 103.341003
1.238175 -0.985386 103.341003
1.375322 -0.586671 104.416801
1.903079 -0.586671 104.416801
1.545199 -1.292408 104.188004
1.903079 -1.375322 104.416801
1.545199 -0.417995 104.188004
1.906617 -0.415904 104.193703
1.551869 -0.860063 102.995201
1.926674 -0.860069 102.995201
0.669361 -0.415904 104.193703
0.985386 -0.731930 103.341003
1.113526 -0.860069 102.995201
1.294456 -0.415904 104.193703
1.565264 -0.415904 101.776299
1.949069 -0.415904 101.769798
0.668693 -0.415904 101.769798
0.987873 -0.735080 102.650398
1.314234 -0.415904 101.769798
1.565264 -1.311806 101.776299
1.555058 -0.987871 102.650398
1.932779 -0.987871 102.650398
1.241329 -0.987871 102.650398
1.565264 -0.671063 101.776299
1.926658 -1.113189 102.996201
1.551852 -1.113191 102.996201
1.948944 -1.565262 101.776299
1.906708 -1.545197 104.188004
1.595809 -0.880408 99.901840
1.987002 -0.880408 99.901840
1.621686 -0.417997 98.654083
2.015110 -0.415904 98.648483
0.669361 -0.415904 98.648483
1.010316 -0.756860 99.568481
1.134653 -0.879583 99.903923
1.368818 -0.415904 98.648483
1.595594 -1.138397 99.914078
1.986954 -1.134651 99.903923
1.962286 -1.575141 101.092499
1.575141 -0.671495 101.092499
1.589564 -1.004744 100.237297
1.979843 -1.004744 100.237297
1.258201 -1.004744 100.237297
1.575141 -1.321684 101.092499
1.575141 -0.416427 101.092499
1.962258 -0.415904 101.093803
0.670972 -0.415904 101.093803
1.004744 -0.749676 100.237297
1.322182 -0.415904 101.093803
1.621686 -1.366617 98.654083
1.602321 -1.010316 99.568481
1.994265 -1.010316 99.568481
1.265384 -1.010316 99.568481
1.621686 -0.671453 98.654083
2.014977 -1.621686 98.654083
2.094898 -1.703083 95.524879
1.667174 -1.171020 96.802467
2.060544 -1.171024 96.802483
1.667253 -0.914806 96.799522
1.636890 -0.415904 97.997437
2.060621 -0.914806 96.799522
2.030576 -0.415904 97.997437
2.030565 -1.636878 97.997917
1.636878 -0.673150 97.997917
1.658836 -1.039253 97.118881
2.052409 -1.039253 97.118881
1.294319 -1.039253 97.118881
1.636878 -1.381812 97.997917
2.095055 -0.415904 95.519279
1.703085 -0.418111 95.524879
0.670972 -0.415904 95.519279
1.046577 -0.791508 96.483200
1.172253 -0.914806 96.799522
1.447997 -0.415904 95.519279
1.703085 -1.445636 95.524879
1.675817 -1.046577 96.483200
2.068907 -1.046577 96.483200
1.304024 -1.046577 96.483200
1.703085 -0.673179 95.524879
1.760608 -0.959994 93.692902
2.148456 -0.959967 93.692963
2.189834 -0.415904 92.386559
1.805577 -0.415904 92.392479
0.673353 -0.415904 92.386559
1.093651 -0.836204 93.395760
1.220570 -0.959967 93.692963
1.547634 -0.415904 92.386559
1.721801 -0.675758 94.903999
1.750690 -1.085246 93.993683
2.139308 -1.085246 93.993683
1.342696 -1.085246 93.993683
1.721801 -1.464354 94.903999
2.112474 -1.721799 94.903999
2.148343 -1.218930 93.696564
1.760488 -1.218930 93.696548
2.112522 -0.415904 94.902321
1.721110 -0.415904 94.902321
2.189642 -1.805577 92.392479
1.805577 -1.544978 92.392479
1.770585 -1.093651 93.395760
2.157630 -1.093651 93.395760
1.354251 -1.093651 93.395760
1.805577 -0.675812 92.392479
1.927578 -1.662985 89.258797
1.884681 -1.150448 90.306160
2.261402 -1.150448 90.306160
1.415038 -1.150448 90.306160
1.927578 -0.679306 89.258797
1.873671 -1.014652 90.583618
2.251447 -1.014662 90.583603
2.300378 -0.415904 89.252563
1.927578 -0.418707 89.258797
0.676505 -0.415904 89.252563
1.150449 -0.889847 90.306160
1.279257 -1.014662 90.583603
1.666034 -0.415904 89.252563
2.300142 -1.927578 89.258797
1.873506 -1.277193 90.587883
2.251297 -1.277175 90.587837
1.826912 -0.415904 91.807121
2.209060 -0.415904 91.807121
2.208973 -1.826816 91.809677
1.826818 -0.679241 91.809677
1.862649 -1.141392 90.865280
2.241471 -1.141392 90.865280
1.401993 -1.141392 90.865280
1.826818 -1.566218 91.809677
1.950714 -0.683652 88.714401
1.993741 -1.207175 87.735680
2.359876 -1.207175 87.735680
1.471768 -1.207175 87.735680
1.950714 -1.686122 88.714401
2.005624 -1.078432 87.472427
2.370616 -1.078405 87.472481
2.427886 -0.415904 86.118797
2.068564 -0.415904 86.125282
0.680497 -0.415904 86.118797
1.216584 -0.951991 87.214157
1.347932 -1.078405 87.472481
1.802568 -0.415904 86.118797
2.321026 -1.950714 88.714401
2.370420 -1.345354 87.477364
2.005406 -1.345341 87.477341
2.068564 -1.799038 86.125282
2.017419 -1.216584 87.214157
2.381281 -1.216584 87.214157
1.486110 -1.216584 87.214157
2.068564 -0.683725 86.125282
2.427599 -2.068564 86.125282
2.321155 -0.415904 88.710960
1.949089 -0.415904 88.710960
2.093206 -0.689088 85.617599
2.143802 -1.282504 84.605843
2.496012 -1.282504 84.605843
1.552029 -1.282504 84.605843
2.093206 -1.823679 85.617599
2.573662 -2.228664 82.992798
2.156117 -1.423447 84.365547
2.507250 -1.423472 84.365601
2.156391 -1.151090 84.360161
2.091066 -0.415904 85.613518
2.507500 -1.151084 84.360161
2.450142 -0.415904 85.613518
2.228664 -0.689168 82.992798
1.567580 -1.292053 84.119843
2.518854 -1.292053 84.119843
2.168825 -1.292053 84.119843
2.228664 -1.953136 82.992798
2.574008 -0.415904 82.985840
2.228664 -0.419641 82.992798
0.685431 -0.415904 82.985840
1.292053 -1.022526 84.119843
1.423474 -1.147945 84.365601
1.957238 -0.415904 82.985840
2.449963 -2.093204 85.617599
2.254575 -0.695681 82.519119
2.313208 -1.367567 81.476639
2.651564 -1.367567 81.476639
1.643098 -1.367567 81.476639
2.254575 -1.979049 82.519119
2.326427 -1.232886 81.246910
2.663798 -1.232850 81.246964
2.740450 -0.415904 79.854271
2.408486 -0.415904 79.861610
0.691431 -0.415904 79.854271
1.377101 -1.101571 81.023201
1.511817 -1.229072 81.252876
2.130505 -0.415904 79.854271
2.597476 -2.254575 82.519119
2.663482 -1.511817 81.252876
2.326088 -1.511812 81.252869
2.408486 -2.125740 79.861610
2.339411 -1.377099 81.023201
2.675826 -1.377099 81.023201
1.659844 -1.377099 81.023201
2.408486 -0.695766 79.861610
2.597710 -0.415904 82.514557
2.254829 -0.415904 82.514557
2.740032 -2.408485 79.861610
2.928994 -2.609641 76.723351
2.516450 -1.610901 78.135460
2.841105 -1.610915 78.135483
2.516855 -1.324303 78.129097
2.432252 -0.415904 79.413551
2.841491 -1.324326 78.129066
2.765609 -0.415904 79.413551
2.609641 -0.703434 76.723351
1.763429 -1.472336 77.919838
2.854218 -1.472336 77.919838
2.530392 -1.472336 77.919838
2.609641 -2.318550 76.723351
2.929495 -0.415904 76.715500
2.609641 -0.420932 76.723351
0.698406 -0.415904 76.715500
1.472338 -1.189835 77.919838
1.610917 -1.319824 78.135483
2.324084 -0.415904 76.715500
2.765311 -2.435574 79.418739
2.435574 -0.703340 79.418739
2.503014 -1.462902 78.344711
2.828480 -1.462902 78.344711
1.745406 -1.462902 78.344711
2.435574 -2.153070 79.418739
2.639056 -0.420446 76.291199
2.956731 -0.419126 76.292999
2.739116 -1.486145 74.866463
3.051994 -1.486145 74.866463
0.715916 -0.419126 76.292999
1.619882 -1.323093 75.084480
1.782933 -1.486145 74.866463
1.773063 -1.476272 74.879639
2.361316 -0.419126 76.292999
3.152010 -2.843506 73.448570
2.738166 -1.773062 74.879639
3.051088 -1.773062 74.879639
2.843509 -0.616259 73.448570
3.153436 -0.604194 73.428909
0.883015 -0.604194 73.428909
1.639328 -1.360505 74.661690
2.561430 -0.604194 73.428909
2.843509 -2.546719 73.448570
2.753890 -1.639326 74.661690
3.066102 -1.639326 74.661690
1.936114 -1.639326 74.661690
2.843509 -0.895078 73.448570
2.639056 -0.717233 76.291199
2.723497 -1.619882 75.084480
3.037099 -1.619882 75.084480
1.898704 -1.619882 75.084480
2.639056 -2.360234 76.291199
2.956845 -2.639053 76.291199
2.988986 -1.733869 71.577827
3.292678 -1.733871 71.577827
3.103606 -0.883728 70.179688
3.406279 -0.885463 70.160690
1.162460 -0.885463 70.160690
1.889315 -1.612320 71.374786
2.033185 -1.733871 71.577827
2.818835 -0.885463 70.160690
2.875835 -0.927042 73.022614
2.971407 -1.865216 71.797218
3.275645 -1.865216 71.797218
2.142211 -1.865216 71.797218
2.875835 -2.598840 73.022614
2.987031 -2.025141 71.601677
3.291405 -2.020660 71.594193
3.183143 -2.875834 73.022614
3.404716 -3.103602 70.179688
2.867828 -0.637965 73.009300
3.184130 -0.637967 73.009300
3.103606 -2.804286 70.179688
3.005255 -1.889313 71.374786
3.308569 -1.889313 71.374786
2.188629 -1.889313 71.374786
3.103606 -1.173834 70.179688
3.139572 -1.211877 69.754089
3.245790 -2.151344 68.530937
3.544934 -2.151344 68.530937
2.426448 -2.151344 68.530937
3.139572 -2.864466 69.754089
3.562885 -2.307736 68.327332
3.263893 -2.307736 68.327332
3.691422 -3.392923 66.914467
3.265515 -2.022034 68.309143
3.564492 -2.022032 68.309143
3.392923 -1.208902 66.914467
3.693355 -1.196878 66.893837
1.471980 -1.196878 66.893837
2.178422 -1.903320 68.105530
2.321705 -2.022032 68.309143
3.109092 -1.196878 66.893837
3.392923 -1.484003 66.914467
2.478097 -2.178422 68.105530
3.582598 -2.178422 68.105530
3.283746 -2.178422 68.105530
3.392923 -3.093252 66.914467
3.440055 -3.139570 69.754089
3.140910 -0.924275 69.738373
3.441368 -0.924275 69.738373
3.392923 -0.207147 66.914467
3.311082 0.000000 67.802849
3.609782 0.000000 67.802849
2.410906 0.000000 67.802849
2.710574 0.000000 67.802849
3.433245 -1.525988 66.486237
3.551168 -2.466250 65.268051
3.850349 -2.466250 65.268051
2.739726 -2.466250 65.268051
3.433245 -3.159769 66.486237
3.731792 -3.433243 66.486237
3.870744 -2.623639 65.064117
3.571382 -2.623639 65.064117
4.016700 -3.715550 63.649460
3.573430 -2.338815 65.044189
3.872746 -2.338813 65.044182
3.715553 -1.544787 63.649460
4.019101 -1.531896 63.626808
1.805371 -1.531896 63.626808
2.496200 -2.222724 64.840271
2.639027 -2.338813 65.044182
3.432813 -1.531896 63.626808
3.423370 -1.239157 66.468903
3.733442 -1.239157 66.468903
3.715553 -1.818262 63.649460
2.796418 -2.496198 64.840271
3.893315 -2.496198 64.840271
3.593734 -2.496198 64.840271
3.715553 -3.415332 63.649460
3.917068 -2.685151 61.780880
4.222178 -2.685151 61.780891
4.076597 -1.905029 60.384010
4.389098 -1.891010 60.358921
2.163222 -1.891010 60.358921
2.843810 -2.571598 61.577560
2.986607 -2.685151 61.780891
3.794735 -1.891010 60.358921
4.076597 -2.177241 60.384010
3.145262 -2.843809 61.577560
4.245471 -2.843809 61.577560
3.939798 -2.843809 61.577560
4.076597 -3.775147 60.384010
3.760773 -1.864070 63.219452
3.892082 -2.810905 62.006050
4.196605 -2.810905 62.006050
3.083116 -2.810905 62.006050
3.760773 -3.488563 63.219452
3.914635 -2.969561 61.802731
4.062653 -3.760773 63.219452
4.219687 -2.969561 61.802731
4.386066 -4.076599 60.384010
3.762772 -1.577307 63.200619
4.064684 -1.577307 63.200619
4.076597 -0.784678 60.384010
3.940135 0.000000 61.574581
4.245812 0.000000 61.574581
2.846144 0.000000 61.574581
3.147594 0.000000 61.574581
3.760773 -0.497212 63.219452
3.127906 0.000000 62.086250
2.855696 0.000000 62.086250
4.187554 0.000000 62.086250
3.883234 0.000000 62.086250
3.764270 -0.742269 63.186470
3.915480 -0.139154 61.795311
4.066211 -0.742269 63.186470
4.219778 -0.134782 61.801929
4.072666 -1.047158 60.417641
4.382016 -1.047158 60.417641
3.433245 -0.210933 66.486237
2.918243 0.000000 65.581619
2.644768 0.000000 65.581619
3.819301 0.000000 65.581619
3.520347 0.000000 65.581619
3.448516 -0.417523 66.325668
3.571418 -0.127325 65.063881
3.747107 -0.417523 66.325668
3.870168 -0.124705 65.069847
3.698396 -0.675620 63.814259
3.999286 -0.675620 63.814259
3.715553 -0.488402 63.649460
3.601531 0.000000 64.762573
3.901199 0.000000 64.762573
2.556177 0.000000 64.762573
2.856392 0.000000 64.762573
2.079366 0.000000 58.738621
1.241737 0.000000 58.738621
1.939737 -0.787532 59.933498
1.097955 -0.813318 59.972630
4.591324 0.000000 58.738621
4.275124 0.000000 58.738621
4.127359 -0.800921 59.953812
3.189914 -0.003227 58.743511
3.458503 0.000000 58.738621
2.890139 0.000000 58.738621
0.284638 0.000000 58.738621
4.127359 -1.085557 59.953812
4.301619 -0.156171 58.526569
4.617837 -0.149665 58.533829
3.189914 -0.287863 58.743511
2.212290 -1.097955 59.972630
1.939737 -1.072168 59.933498
2.103731 -0.149665 58.533829
1.266041 -0.149663 58.533829
4.436115 -1.097955 59.972630
3.866433 -1.097955 59.972630
3.350244 -0.155009 58.541939
3.053026 -0.149665 58.533829
4.482903 -1.420413 57.117908
4.810467 -1.440704 57.095291
2.282720 -1.440704 57.095291
2.553999 -1.440704 57.095291
3.065718 -0.163986 58.517872
3.226051 -0.344896 58.316299
4.197218 -1.440704 57.095291
4.482903 -1.101076 57.117908
4.324458 0.000000 58.344780
4.642514 0.000000 58.344780
0.319337 0.000000 58.344780
1.440706 -1.121366 57.095291
1.288594 0.000000 58.344780
2.126346 0.000000 58.344780
2.279608 -1.126441 57.089649
3.226051 -0.025557 58.316299
2.970444 0.000000 58.344780
3.507067 0.000000 58.344780
4.127359 -2.227250 59.953812
4.274515 -3.189914 58.743511
4.590689 -3.189914 58.743511
3.461197 -3.189914 58.743511
4.127359 -3.856080 59.953812
4.301622 -3.058790 58.526569
4.619914 -3.065717 58.517872
4.482903 -2.295162 57.117908
4.811247 -2.279606 57.089649
2.550890 -2.279606 57.089649
3.226051 -2.954767 58.316299
3.369391 -3.065717 58.517872
4.201711 -2.279606 57.089649
4.438424 -4.127362 59.953812
4.616785 -3.350246 58.541939
4.299671 -3.350245 58.541939
4.482903 -2.566445 57.117908
3.529718 -3.226048 58.316299
4.646250 -3.226048 58.316299
4.328051 -3.226048 58.316299
4.482903 -4.179229 57.117908
4.129778 -1.939737 59.933498
4.440915 -1.939737 59.933498
4.807352 -4.482903 57.117908
4.943915 -3.000134 53.851212
3.959827 -3.652734 55.053780
5.104039 -3.652734 55.053780
4.767099 -3.652734 55.053780
4.943915 -4.636823 53.851212
4.738719 -3.490153 55.252468
5.074385 -3.490153 55.252468
4.943915 -2.729737 53.851212
5.293877 -2.711875 53.818291
2.982275 -2.711875 53.818291
3.652737 -3.382336 55.053780
3.797245 -3.490153 55.252468
4.663758 -2.711875 53.818291
4.540083 -2.621751 56.688950
4.706763 -3.612599 55.478111
5.040993 -3.612599 55.478111
3.882998 -3.612599 55.478111
4.540083 -4.269683 56.688950
4.543017 -2.332534 56.667099
4.870027 -2.332534 56.667099
4.866959 -4.540082 56.688950
5.288699 -4.943915 53.851212
4.734887 -3.775183 55.279419
5.070378 -3.775182 55.279419
3.652737 -0.416028 55.053780
4.679195 -1.874466 53.799431
4.943915 -1.814259 53.851212
5.296851 -1.874466 53.799431
4.736819 -0.169498 55.265808
5.072403 -0.169498 55.265808
3.786319 -0.169498 55.265808
3.479228 -0.169498 55.265808
3.490154 -0.185024 55.252468
2.972038 -1.874466 53.799431
2.711875 -1.852529 53.818291
2.513649 -0.169497 55.265808
1.674594 -0.169501 55.265820
4.943915 -1.449790 53.851212
4.760746 0.000000 55.098129
5.097399 0.000000 55.098129
0.364471 0.000000 55.098129
1.874466 -1.509994 53.799431
1.696817 0.000000 55.098129
2.535980 0.000000 55.098129
2.711875 -1.488058 53.818291
3.652737 -0.051557 55.053780
3.406403 0.000000 55.098129
3.923542 0.000000 55.098129
2.491582 0.000000 55.432770
1.652610 0.000000 55.432770
2.332534 -1.107779 56.667099
1.485931 -1.166592 56.732632
5.047678 0.000000 55.432770
4.713157 0.000000 55.432770
4.540083 -1.127378 56.688950
3.612603 -0.040683 55.478111
0.319337 0.000000 55.432770
3.342606 0.000000 55.432770
3.858400 0.000000 55.432770
4.540083 -1.446717 56.688950
3.612603 -0.360020 55.478111
2.585999 -1.485931 56.732632
2.332534 -1.427116 56.667099
3.775182 -0.181711 55.279419
4.860842 -1.485931 56.732632
4.293394 -1.485931 56.732632
5.356714 -5.009129 53.422482
5.589954 -4.267925 52.004532
5.233628 -4.267929 52.004532
5.012609 -2.771845 53.399792
5.360345 -2.771845 53.399792
5.238819 -3.983152 51.972759
5.595314 -3.983154 51.972771
5.009132 -3.064322 53.422482
5.201831 -4.101960 52.200050
5.557074 -4.101960 52.200050
4.370132 -4.101960 52.200050
5.009132 -4.740958 53.422482
5.473238 -3.257504 50.584572
5.842567 -3.234850 50.541241
3.503020 -3.234850 50.541229
4.149118 -3.880947 51.777248
4.294888 -3.983154 51.972771
5.198289 -3.234850 50.541229
5.834931 -5.473237 50.584572
5.473238 -3.525674 50.584572
4.460854 -4.149120 51.777248
5.628449 -4.149120 51.777248
5.270944 -4.149120 51.777248
5.854794 -3.466809 50.471970
5.257087 -3.466809 50.471970
5.473238 -5.161503 50.584572
5.854794 -5.257087 50.471970
5.009132 -1.851213 53.422482
5.234612 -0.195569 51.998520
5.590969 -0.195573 51.998520
4.101960 -0.429899 52.200050
3.014340 -1.919679 53.481361
2.771845 -1.824836 53.399792
2.984397 -0.195573 51.998520
2.142176 -0.195573 51.998520
5.347301 -1.919679 53.481361
4.771741 -1.919679 53.481361
4.273031 -0.195573 51.998520
3.961298 -0.195573 51.998520
2.771845 -1.460366 53.399792
2.961357 0.000000 52.143768
2.119372 0.000000 52.143768
0.364471 0.000000 52.143768
1.919681 -1.555210 53.481361
5.566517 0.000000 52.143768
5.210956 0.000000 52.143768
5.009132 -1.486743 53.422482
4.101960 -0.065431 52.200050
3.837994 0.000000 52.143768
4.340714 0.000000 52.143768
5.473238 -1.867919 50.584572
5.259984 0.000000 51.843739
5.617159 0.000000 51.843739
0.425182 0.000000 51.843739
2.393276 -1.968094 50.517040
3.466810 -2.034971 50.471970
2.166767 0.000000 51.843739
3.009258 0.000000 51.843739
3.234852 -1.932206 50.541229
4.149118 -0.098634 51.777248
3.915704 0.000000 51.843739
4.404415 0.000000 51.843739
5.257087 -2.034971 50.471970
5.854794 -2.034971 50.471970
4.149118 -0.523815 51.777248
5.218822 -2.393277 50.517040
5.473238 -2.293103 50.584572
5.846833 -2.393277 50.517040
3.983155 -0.233768 51.972771
3.490375 -2.393277 50.517040
3.234852 -2.357391 50.541229
3.008470 -0.403361 51.858452
2.160706 -0.357728 51.889198
3.909742 -0.079453 69.841217
3.909747 0.000000 69.841217
3.818767 0.000002 71.069283
3.246833 -0.415904 79.571228
3.419918 -0.415904 76.495682
3.442521 0.000013 76.147850
3.573525 -0.543396 74.218391
3.510244 -0.487417 75.152946
3.433053 -0.419126 76.292999
3.630006 -0.604194 73.428909
3.660740 -0.637967 73.009300
3.245123 0.000015 79.571159
3.061124 0.000016 82.762077
3.026904 -0.415904 83.479118
3.030218 0.000011 83.479279
3.017120 -0.415904 83.652878
2.742353 -0.000024 90.159439
2.401924 -1.554614 103.056099
2.382085 -1.545197 104.188004
2.380252 -1.545014 104.303596
2.587990 -1.721799 94.903999
2.570400 -1.703083 95.524879
2.506024 -1.636878 97.997917
2.437699 -1.575141 101.092499
2.490423 -1.621686 98.654083
2.424349 -1.565262 101.776299
2.378454 -0.415904 104.416801
2.376596 0.000000 104.535599
2.378454 -1.544836 104.416801
2.376596 -2.138935 104.535599
2.381998 -0.415904 104.193703
2.424475 -0.415904 101.769798
2.497210 0.000000 98.365601
2.483493 -0.415904 98.954239
2.613775 -0.000013 94.463600
2.614656 -0.415904 94.463600
2.732015 -0.415904 90.445442
2.925754 -2.093204 85.617599
2.903368 -2.068564 86.125282
2.796706 -1.950714 88.714401
2.775805 -1.927578 89.258797
2.684560 -1.826816 91.809677
2.665214 -1.805577 92.392479
3.049569 -2.228664 82.992798
3.216114 -2.408485 79.861610
3.073410 -2.254575 82.519119
3.881645 -3.103602 70.179688
3.659753 -2.875834 73.022614
3.628577 -2.843506 73.448570
3.405286 -2.609641 76.723351
3.241415 -2.435574 79.418739
3.433165 -2.639053 76.291199
3.917035 -3.139570 69.754089
4.209258 -3.433243 66.486237
4.168820 -3.392923 66.914467
5.287168 -4.482903 57.117908
4.917319 -4.127362 59.953812
4.864841 -4.076599 60.384010
4.540729 -3.760773 63.219452
4.494684 -3.715550 63.649460
6.358554 6.358554 50.353130
6.337486 -2.401611 50.471970
5.329007 -4.522859 56.837318
5.838098 -5.009129 53.422482
6.325231 -3.234850 50.541229
6.337486 -3.247929 50.471970
6.337486 -5.492928 50.471970
6.317584 -5.473237 50.584572
4.480984 -1.515419 63.786770
4.497088 -1.531896 63.626808
4.510741 -0.708919 63.500591
4.542767 -1.577307 63.200619
4.544298 -0.742269 63.186470
4.702835 -0.895000 61.799438
4.705708 -1.734534 61.776390
4.860776 -1.047158 60.417641
4.867877 -1.891010 60.358921
6.329510 -2.393277 50.517040
6.257143 -3.164094 50.928612
6.260265 -2.322574 50.910751
6.101752 -3.017365 51.853008
6.096482 -2.169685 51.886230
5.841746 -2.771845 53.399792
5.828658 -1.919679 53.481361
5.778055 -1.874466 53.799431
5.775071 -2.711875 53.818291
5.569244 -2.528182 55.197788
5.566143 -1.686165 55.220982
5.350018 -2.332534 56.667099
5.340807 -1.485931 56.732632
5.290294 -1.440704 57.095291
5.291077 -2.279606 57.089649
5.107992 -2.112002 58.492081
5.105113 -1.271582 58.515060
4.919822 -1.939737 59.933498
4.915002 -1.097955 59.972630
3.918355 -0.924275 69.738373
4.063074 -0.244087 68.129204
4.041795 -1.057595 68.347198
4.224597 -0.417523 66.325668
4.170749 -1.196878 66.893837
4.210908 -1.239157 66.468903
4.349977 -0.545610 65.079323
4.352842 -1.384342 65.059341
4.477238 -0.675620 63.814259
3.812273 -0.806542 71.069054
3.883215 -0.885463 70.160690
4.267929 -3.956191 52.004532
2.771845 -2.771845 53.399792
3.083581 -2.771845 53.399792
4.101960 -3.790226 52.200050
4.729102 -2.771845 53.399792
4.997271 -2.771845 53.399792
4.267929 -4.267925 52.004532
3.956194 -4.267925 52.004532
-0.985386 -0.985386 103.341003
-0.731930 -0.985386 103.341003
-0.586671 -0.586671 104.416801
-0.415904 -0.669361 104.193703
0.586673 -0.586671 104.416801
-0.415904 -0.985386 103.341003
0.415904 -0.985386 103.341003
-0.415904 -1.294454 104.193703
-0.586671 -1.375322 104.416801
-0.415904 -1.545197 104.188004
0.415904 -1.551354 103.056099
-0.415904 -1.551354 103.056099
-0.415904 -1.565262 101.776299
0.415904 -1.113189 102.996201
-0.415904 -1.113189 102.996201
1.113190 -1.113189 102.996201
-0.415904 -0.415904 104.193703
-0.415904 -0.415904 101.769798
0.415904 -0.860069 102.995201
-0.415904 -0.860069 102.995201
-0.987871 -0.987871 102.650398
-0.735080 -0.987871 102.650398
-0.415904 -1.314232 101.769798
-0.415904 -0.987871 102.650398
0.415904 -0.987871 102.650398
-0.415904 -0.668693 101.769798
-0.415904 -1.575141 101.092499
0.415904 -1.595574 99.914078
-0.415904 -1.595574 99.914078
-0.415904 -1.621686 98.654083
-0.415904 -1.134651 99.903923
0.415904 -1.134651 99.903923
0.415904 -0.880408 99.901840
-0.415904 -0.880408 99.901840
-0.415904 -0.415904 101.093803
-0.415904 -0.415904 98.648483
-1.010316 -1.010316 99.568481
-0.756860 -1.010316 99.568481
-0.415904 -1.368818 98.648483
-0.415904 -1.010316 99.568481
0.415904 -1.010316 99.568481
-0.415904 -0.669361 98.648483
1.134653 -1.134651 99.903923
-1.004744 -1.004744 100.237297
-0.749676 -1.004744 100.237297
-0.415904 -0.670972 101.093803
-0.415904 -1.004744 100.237297
0.415904 -1.004744 100.237297
-0.415904 -1.322181 101.093803
1.597634 -1.597634 99.914078
1.584550 -1.584550 100.599503
1.669247 -1.669245 96.788879
-1.039253 -1.294319 97.118881
-0.913575 -1.171024 96.802483
-0.415904 -1.636690 97.997437
-1.381812 -1.636878 97.997917
-1.636878 -1.636878 97.997917
-1.171024 -1.171024 96.802483
-0.415904 -1.171024 96.802483
0.415904 -1.171024 96.802483
1.171024 -1.171024 96.802483
-0.673150 -1.636878 97.997917
0.415904 -0.673351 97.997437
0.781806 -1.039253 97.118881
-1.039253 -1.039253 97.118881
-0.781806 -1.039253 97.118881
-0.415904 -0.673351 97.997437
-0.415904 -1.039253 97.118881
0.415904 -1.039253 97.118881
-0.415904 -1.381623 97.997437
0.415904 -1.381623 97.997437
-0.415904 -1.667538 96.788879
-1.039253 -1.658836 97.118881
-1.171019 -1.667172 96.802467
-0.910636 -1.667554 96.788803
-0.415904 -1.703083 95.524879
-0.673179 -1.703083 95.524879
-1.046577 -1.675814 96.483200
-1.445636 -1.703083 95.524879
-1.703083 -1.703083 95.524879
0.415904 -1.667538 96.788879
-0.415904 -0.415904 97.997437
-0.415904 -0.415904 95.519279
0.415904 -0.415904 97.997437
0.415904 -0.914806 96.799522
-0.415904 -0.914806 96.799522
-1.046577 -1.046577 96.483200
-0.791508 -1.046577 96.483200
-0.415904 -1.447997 95.519279
-0.415904 -1.046577 96.483200
0.415904 -1.046577 96.483200
-0.415904 -0.670972 95.519279
0.673353 -0.415904 97.997437
1.039253 -0.781806 97.118881
1.381625 -0.415904 97.997437
0.415904 -0.959967 93.692963
-0.415904 -0.959967 93.692963
0.415904 -0.415904 94.902321
-0.415904 -0.415904 94.902321
-0.415904 -1.761426 93.668320
-0.415904 -1.721852 94.902321
-1.721799 -1.721799 94.903999
-1.464354 -1.721799 94.903999
-1.085246 -1.750689 93.993683
-1.218930 -1.760487 93.696548
-0.959995 -1.760608 93.692909
-0.675758 -1.721799 94.903999
-0.415904 -1.805578 92.392479
-0.675812 -1.805578 92.392479
-1.093651 -1.770585 93.395760
-1.544978 -1.805578 92.392479
-1.805578 -1.805578 92.392479
0.415904 -1.761426 93.668320
-0.415904 -0.415904 92.386559
-0.415904 -1.218930 93.696564
0.415904 -1.218930 93.696564
-1.093651 -1.093651 93.395760
-0.836204 -1.093651 93.395760
-0.415904 -1.547634 92.386559
-0.415904 -1.093651 93.395760
0.415904 -1.093651 93.395760
-0.415904 -0.673351 92.386559
0.676505 -0.415904 94.902321
1.085249 -0.824646 93.993683
1.463665 -0.415904 94.902321
0.415904 -0.676503 94.902321
0.824648 -1.085246 93.993683
-1.085246 -1.085246 93.993683
-0.824646 -1.085246 93.993683
-0.415904 -0.676503 94.902321
-0.415904 -1.085246 93.993683
0.415904 -1.085246 93.993683
-0.415904 -1.463663 94.902321
0.415904 -1.463663 94.902321
-1.085246 -1.342694 93.993683
-1.218930 -1.218930 93.696564
1.218930 -1.218930 93.696564
-0.958330 -1.218930 93.696564
-1.150448 -1.150448 90.306160
-0.889847 -1.150448 90.306160
-0.415904 -1.666034 89.252563
-0.415904 -1.150448 90.306160
0.415904 -1.150448 90.306160
-0.415904 -0.676503 89.252563
-0.415904 -1.875014 90.549599
-0.415904 -1.826910 91.807121
-1.014670 -1.873672 90.583580
-1.141392 -1.862646 90.865280
-1.826816 -1.826816 91.809677
-1.566218 -1.826816 91.809677
-1.277193 -1.873506 90.587883
-0.679241 -1.826816 91.809677
-0.415904 -1.927578 89.258797
-0.679306 -1.927578 89.258797
-1.150448 -1.884681 90.306160
-1.662985 -1.927578 89.258797
-1.927578 -1.927578 89.258797
0.415904 -1.875014 90.549599
1.277175 -1.277175 90.587837
1.876592 -1.876592 90.549599
-1.141392 -1.401993 90.865280
-1.277175 -1.277175 90.587837
-0.415904 -1.277175 90.587837
0.415904 -1.277175 90.587837
-1.012584 -1.277175 90.587837
0.415904 -0.680495 91.807121
0.876802 -1.141392 90.865280
-1.141392 -1.141392 90.865280
-0.876799 -1.141392 90.865280
-0.415904 -0.680495 91.807121
-0.415904 -1.141392 90.865280
0.415904 -1.141392 90.865280
-0.415904 -1.565062 91.807121
0.415904 -1.565062 91.807121
-0.415904 -0.415904 91.807121
-0.415904 -0.415904 89.252563
0.415904 -0.415904 91.807121
0.415904 -1.014662 90.583603
-0.415904 -1.014662 90.583603
0.680497 -0.415904 91.807121
1.141392 -0.876799 90.865280
1.565065 -0.415904 91.807121
-0.415904 -2.007481 87.431602
-0.415904 -1.950858 88.710960
-1.345341 -2.005406 87.477333
-1.950714 -1.950714 88.714401
-1.686122 -1.950714 88.714401
-1.078407 -2.005621 87.472473
-1.207175 -1.993739 87.735680
-0.419132 -2.068564 86.125282
-0.683725 -2.068564 86.125282
-1.216584 -2.017419 87.214157
-1.799038 -2.068564 86.125282
-2.068564 -2.068564 86.125282
0.415904 -2.007481 87.431602
-0.683652 -1.950714 88.714401
0.415904 -0.415904 88.710960
0.685431 -0.415904 88.710960
1.207178 -0.937650 87.735680
1.684496 -0.415904 88.710960
-1.207175 -1.471766 87.735680
-1.345354 -1.345354 87.477364
-0.415904 -1.345354 87.477364
0.415904 -1.345354 87.477364
1.345355 -1.345354 87.477364
-1.075829 -1.345354 87.477364
0.415904 -0.685429 88.710960
0.937650 -1.207175 87.735680
-1.207175 -1.207175 87.735680
-0.937650 -1.207175 87.735680
-0.415904 -0.685429 88.710960
-0.415904 -1.207175 87.735680
0.415904 -1.207175 87.735680
-0.415904 -1.684494 88.710960
0.415904 -1.684494 88.710960
0.415904 -1.078405 87.472481
-0.415904 -1.078405 87.472481
-0.415904 -0.415904 88.710960
-1.216584 -1.216584 87.214157
-0.951991 -1.216584 87.214157
-0.415904 -1.802566 86.118797
-0.415904 -1.216584 87.214157
0.415904 -1.216584 87.214157
-0.415904 -0.680495 86.118797
-0.415904 -0.415904 86.118797
0.415904 -0.691431 85.613518
1.006978 -1.282504 84.605843
-1.282504 -1.282504 84.605843
-1.006976 -1.282504 84.605843
-0.415904 -0.691431 85.613518
-0.415904 -1.282504 84.605843
0.415904 -1.282504 84.605843
-0.415904 -1.821539 85.613518
0.415904 -1.821539 85.613518
-1.823679 -2.093204 85.617599
-2.093204 -2.093204 85.617599
-1.282504 -1.552029 84.605843
-1.423472 -1.423472 84.365601
-0.415904 -1.423472 84.365601
0.415904 -1.423472 84.365601
-0.415904 -2.091066 85.613518
1.423474 -1.423472 84.365601
-1.151084 -1.426612 84.360161
-0.689088 -2.093204 85.617599
-0.415904 -0.685429 82.985840
-1.022526 -1.292053 84.119843
-1.292053 -1.292053 84.119843
0.415904 -1.292053 84.119843
-0.415904 -1.292053 84.119843
-0.415904 -1.957236 82.985840
-0.415904 -0.415904 85.613518
-0.415904 -0.415904 82.985840
0.415904 -0.415904 85.613518
0.415904 -1.151084 84.360161
-0.415904 -1.151084 84.360161
-0.415904 -2.158764 84.314163
-1.423448 -2.156117 84.365562
-1.151068 -2.156391 84.360191
-1.282504 -2.143802 84.605843
-0.419641 -2.228664 82.992798
-0.689168 -2.228664 82.992798
-1.292053 -2.168825 84.119843
-1.953136 -2.228664 82.992798
-2.228664 -2.228664 82.992798
0.415904 -2.158764 84.314163
0.691431 -0.415904 85.613518
1.282506 -1.006976 84.605843
1.821542 -0.415904 85.613518
2.160468 -2.160466 84.314240
-0.415904 -2.329313 81.196960
-0.415904 -2.254827 82.514557
-1.511810 -2.326087 81.252869
-2.254575 -2.254575 82.519119
-1.979049 -2.254575 82.519119
-1.232885 -2.326426 81.246910
-1.367567 -2.313206 81.476639
-0.415904 -2.408485 79.861610
-0.695766 -2.408485 79.861610
-1.377099 -2.339411 81.023201
-2.125740 -2.408485 79.861610
-2.408485 -2.408485 79.861610
0.415904 -2.329313 81.196960
-0.695681 -2.254575 82.519119
0.415904 -0.415904 82.514557
0.698649 -0.415904 82.514557
1.367569 -1.084824 81.476639
1.976346 -0.415904 82.514557
0.415904 -0.698647 82.514557
1.084824 -1.367567 81.476639
-1.367567 -1.367567 81.476639
-1.084824 -1.367567 81.476639
-0.415904 -0.698647 82.514557
-0.415904 -1.367567 81.476639
0.415904 -1.367567 81.476639
0.415904 -1.976346 82.514557
-0.415904 -1.976346 82.514557
-1.367567 -1.643095 81.476639
-1.511817 -1.511817 81.252876
-0.415904 -1.511817 81.252876
0.415904 -1.511817 81.252876
1.511817 -1.511817 81.252876
-1.232850 -1.515595 81.246964
0.415904 -1.232850 81.246964
-0.415904 -1.232850 81.246964
-0.415904 -0.415904 82.514557
-1.377099 -1.377099 81.023201
-1.101571 -1.377099 81.023201
-0.415904 -2.130505 79.854271
-0.415904 -1.377099 81.023201
0.415904 -1.377099 81.023201
-0.415904 -0.691431 79.854271
-0.415904 -0.415904 79.854271
-0.415904 -0.706995 79.413551
-0.415904 -1.462902 78.344711
0.415904 -1.462902 78.344711
1.171814 -1.462902 78.344711
0.415904 -0.706995 79.413551
-1.462902 -1.462902 78.344711
-1.171812 -1.462902 78.344711
0.415904 -2.149750 79.413551
-0.415904 -2.149750 79.413551
-0.415904 -1.610915 78.135483
0.415904 -1.610915 78.135483
-0.415904 -2.435891 79.413551
1.610917 -1.610915 78.135483
-2.153070 -2.435574 79.418739
-2.435574 -2.435574 79.418739
-1.462902 -1.745406 78.344711
-1.610915 -1.610915 78.135483
-1.319824 -1.610915 78.135483
-0.703340 -2.435574 79.418739
-1.189835 -1.472336 77.919838
-1.472336 -1.472336 77.919838
-0.415904 -0.698404 76.715500
0.415904 -1.472336 77.919838
-0.415904 -1.472336 77.919838
-0.415904 -2.324084 76.715500
-0.415904 -0.415904 79.413551
-0.415904 -0.415904 76.715500
0.415904 -0.415904 79.413551
0.860069 -0.415904 102.995201
0.987873 -0.415904 102.650398
1.903079 -0.415904 104.416801
0.914807 -0.415904 96.799522
1.039253 -0.415904 97.118881
1.004744 -0.415904 100.237297
0.880410 -0.415904 99.901840
1.085249 -0.415904 93.993683
1.171024 -0.415904 96.802483
1.046577 -0.415904 96.483200
1.551354 -0.415904 103.056099
1.113190 -0.415904 102.996201
0.985386 -0.415904 103.341003
1.134653 -0.415904 99.903923
1.010316 -0.415904 99.568481
1.014664 -0.415904 90.583603
1.150449 -0.415904 90.306160
1.218930 -0.415904 93.696564
0.959969 -0.415904 93.692963
1.093651 -0.415904 93.395760
1.207178 -0.415904 87.735680
1.078405 -0.415904 87.472481
1.277175 -0.415904 90.587837
1.141392 -0.415904 90.865280
1.511817 -0.415904 81.252876
1.377101 -0.415904 81.023201
1.151084 -0.415904 84.360161
1.292053 -0.415904 84.119843
1.423474 -0.415904 84.365601
1.282506 -0.415904 84.605843
1.345355 -0.415904 87.477364
1.216584 -0.415904 87.214157
1.462903 -0.415904 78.344711
0.706995 -0.415904 79.413551
1.367569 -0.415904 81.476639
1.232852 -0.415904 81.246964
2.149752 -0.415904 79.413551
1.610917 -0.415904 78.135483
1.324326 -0.415904 78.129066
1.472338 -0.415904 77.919838
2.520310 -0.415904 78.075569
2.329315 -0.415904 81.196960
2.158764 -0.415904 84.314163
2.007483 -0.415904 87.431602
1.875016 -0.415904 90.549599
1.761428 -0.415904 93.668320
1.595575 -0.415904 99.914078
1.667538 -0.415904 96.788879
0.415904 -1.324326 78.129066
-0.415904 -1.324326 78.129066
-0.415904 -2.520308 78.075569
-1.610902 -2.516448 78.135460
-1.324305 -2.516855 78.129097
-1.462902 -2.503012 78.344711
-0.420932 -2.609641 76.723351
-0.703434 -2.609641 76.723351
-1.472336 -2.530392 77.919838
-2.318550 -2.609641 76.723351
-2.609641 -2.609640 76.723351
0.415904 -2.520308 78.075569
1.462903 -1.171812 78.344711
1.773063 -1.773062 74.879639
2.692560 -0.455182 75.520943
1.287344 -0.482514 75.132294
1.486145 -0.497030 74.866463
1.619892 -0.482412 75.084457
2.719358 -0.481361 75.153023
2.739778 -0.501304 74.872726
1.773063 -0.496129 74.879639
1.639328 -0.511257 74.661690
1.931559 -0.482044 75.138046
-0.604194 -0.604194 73.428909
-0.497030 -1.486145 74.866463
0.497030 -1.486145 74.866463
-0.419126 -0.715916 76.292999
-0.482409 -1.619882 75.084480
0.482411 -1.619882 75.084480
-1.619882 -1.619882 75.084480
-1.323093 -1.619882 75.084480
-0.419126 -2.361316 76.292999
2.700557 -2.700555 75.436127
2.741074 -2.741071 74.872803
-0.419175 -2.639053 76.291199
0.496129 -1.773062 74.879639
-0.496129 -1.773062 74.879639
-0.455182 -2.692559 75.520943
0.455182 -2.692559 75.520943
-0.501304 -2.739774 74.872726
0.501306 -2.739774 74.872726
-0.602635 -2.843506 73.448570
-0.503583 -0.503583 74.771347
0.503585 -0.503583 74.771347
-0.419126 -0.419126 76.292999
-1.639326 -1.639326 74.661690
-1.360505 -1.639326 74.661690
-0.604194 -2.561426 73.428909
-0.511257 -1.639326 74.661690
0.511257 -1.639326 74.661690
-0.604194 -0.883015 73.428909
-0.637967 -0.637965 73.009300
0.637969 -0.637965 73.009300
-0.682898 -1.045122 72.477432
0.758900 -1.733869 71.577827
-0.758900 -1.733871 71.577827
-0.885463 -0.885463 70.160690
0.757477 -2.020660 71.594193
-0.757477 -2.020660 71.594193
-0.883728 -3.103602 70.179688
-0.637967 -2.876856 73.009300
-0.721863 -2.954262 72.043327
0.760206 -2.989635 71.601883
-2.875834 -2.875834 73.022614
-2.598840 -2.875834 73.022614
-2.025141 -2.987031 71.601677
-1.865216 -2.971405 71.797218
-0.927042 -2.875834 73.022614
-1.733871 -2.988926 71.577827
-1.173834 -3.103602 70.179688
-1.889313 -3.005254 71.374786
-2.804286 -3.103602 70.179688
-3.103602 -3.103602 70.179688
0.937281 -0.637965 73.009300
1.865218 -1.565904 71.797218
2.590833 -0.637965 73.009300
2.020660 -1.721346 71.594193
-0.739867 -1.865216 71.797218
0.739867 -1.865215 71.797218
0.637840 -0.937150 73.009468
-0.637967 -0.937281 73.009300
1.565906 -1.865216 71.797218
-1.565904 -1.865216 71.797218
-1.865216 -1.865216 71.797218
-0.637851 -2.590925 73.009453
0.637969 -2.590834 73.009300
2.020660 -2.020660 71.594193
-1.865216 -2.142211 71.797218
-2.020660 -2.020660 71.594193
-0.682691 -2.550779 72.479660
0.682693 -2.550779 72.479660
-1.721346 -2.020660 71.594193
1.721348 -2.020660 71.594193
2.985352 -0.755561 71.655357
1.733869 -0.758902 71.577827
1.889315 -0.776658 71.374786
2.020660 -0.757477 71.594193
2.056866 -0.752367 71.654663
1.865218 -0.739867 71.797218
-1.889313 -1.889313 71.374786
-1.612320 -1.889313 71.374786
-0.885463 -2.818835 70.160690
-0.776658 -1.889313 71.374786
0.776658 -1.889313 71.374786
-0.885463 -1.162458 70.160690
-0.417523 -3.448512 66.325668
-0.210933 -3.433243 66.486237
-0.124705 -3.570809 65.069847
-3.433243 -3.433243 66.486237
-3.159769 -3.433243 66.486237
-2.466250 -3.551164 65.268051
-2.623639 -3.571380 65.064117
-2.338815 -3.573429 65.044189
-1.239157 -3.423370 66.468903
-1.525988 -3.433243 66.486237
-1.383802 -3.574716 65.064247
-0.547165 -3.574031 65.064171
-1.529494 -3.715553 63.649460
-0.675620 -3.698396 63.814259
-0.488402 -3.715553 63.649460
0.547167 -3.574031 65.064171
1.383805 -3.574716 65.064247
1.529494 -3.715553 63.649460
-1.544787 -3.715553 63.649460
-1.818262 -3.715553 63.649460
-2.496198 -3.593733 64.840271
-3.415332 -3.715553 63.649460
-3.715550 -3.715550 63.649460
0.417525 -0.173489 66.325668
0.244035 0.000000 65.581619
-0.000000 0.000000 65.581619
2.224221 0.000000 65.581619
1.924002 0.000000 65.581619
1.239157 -0.206888 66.468903
1.328686 0.000000 65.581619
0.492583 0.000000 65.581619
1.239157 -1.539375 66.468903
2.166033 -2.466250 65.268051
-0.000000 -2.224218 65.581619
0.170919 -2.466250 65.268051
0.524569 -2.466250 65.268051
1.360730 -2.466250 65.268051
0.417525 -1.649934 66.325668
-1.360730 -2.466250 65.268051
-0.524567 -2.466250 65.268051
-1.239157 -1.539375 66.468903
-0.417523 -1.649934 66.325668
-2.466250 -2.466250 65.268051
-2.166033 -2.466250 65.268051
-0.170917 -2.466250 65.268051
-1.239157 -3.149896 66.468903
-0.417523 -3.068350 66.325668
