x y z 
1.7719229400772105 1.843979933382357 1.3935330536774981
1.8040948320874908 1.7924585843947785 1.3830011520965984
1.8566715607294484 1.7616836785410201 1.388544237324823
1.8735974210531714 1.6968320524308966 1.366926165287474
1.8969489531442854 1.6396427820770316 1.3508511784783497
1.928096504720911 1.5902761826456437 1.3408736779305759
1.966106475485391 1.546906570761096 1.3358848615779009
1.9822277036292884 1.4866293274880182 1.3159297283247768
1.9907978878373094 1.422229932562354 1.2915401797521038
2.050203768345833 1.3948771022142623 1.300963411424328
2.0097176326444846 1.2997573426724593 1.2460868280176312
1.87946605127167 1.1531630937621398 1.1374421989553367
1.9827448878226295 1.1556420841249782 1.17513525780181
1.821248241209936 1.8966000876891416 1.2940317051949475
1.8828515355331314 1.87262267264392 1.3045400366691728
1.9302509438299118 1.8331457119793988 1.3045400366691728
1.9941586060520893 1.8085507062305832 1.3155488500976937
2.0258128174041765 1.7535562727927614 1.3045400366691728
2.0096331227262465 1.6590152107324931 1.2630069541177695
2.0257473240206147 1.59483958106887 1.2434913791190092
1.9895542980725323 1.4922400333929025 1.192450690393174
1.9982959422239914 1.4276978367385698 1.1704331828405312
2.0655466615533955 1.4055237782126362 1.183443446868639
2.1274264031649577 1.3774121934462569 1.192450690393174
1.7191721936802198 1.7877055194109417 1.0935275388942998
1.7703418873312087 1.7581024734387307 1.0980147218231622
1.9151023130690321 1.818433004256618 1.1603867036120947
2.0267026419792087 1.8387078076477517 1.1994251843949104
2.0591657346439343 1.7830396912060966 1.189553339158261
2.0500131903313794 1.6930574198547366 1.1558995206832323
2.1060636717705306 1.659389372346668 1.1603867036120947
2.1043368346682336 1.5801404980417881 1.1325661266599953
2.1607525954934528 1.5461682247960253 1.1370533095888578
2.159309486708648 1.4705872839423169 1.1105788982137053
0.8584486270746139 0.4873898098610537 0.3980135162776145
0.8931484502338015 0.4558870219361413 0.39711609039012996
1.7520557822134435 1.822785680363695 0.9914145250115387
1.831519068267154 1.8203728925500104 1.0109635526566652
1.9302509438299118 1.8331457119793988 1.040087581249828
2.010430535843846 1.8236291752343048 1.0576417655077894
2.119049500621499 1.8359759341077575 1.0891595681178032
2.1338792567219245 1.7637602774686745 1.0708074274811024
2.1315102796098944 1.6798406661464487 1.0444761035344763
2.088869644428201 1.5682957240087798 0.9993937083214637
2.144090384831417 1.5340174231926442 1.0029843693467404
1.7520557822134435 1.822785680363695 0.8718580132242967
1.8462858872935803 1.8354035951036107 0.8964173691373234
1.994452553986827 1.8954998310071016 0.9458869874591147
2.051850298089091 1.8620110149514852 0.9497462897222518
2.119049500621499 1.8359759341077575 0.957815800744264
2.1082534730711817 1.7421565918460908 0.930098788262081
2.1315102796098944 1.6798406661464487 0.9185207978239223
2.1466680104463807 1.612557711760797 0.9037852344653546
2.0957698547339807 1.4987800116334506 0.8616833978228471
1.7452050550191327 1.8154773352791245 0.7527490129461692
1.8533177298279286 1.842561096888416 0.7801216766392999
2.002387526482453 1.9032064635707475 0.8233096861380518
2.0607260244072165 1.8702357532514973 0.826959403635615
2.146338316809163 1.860098789085685 0.8412540096462967
2.1082534730711817 1.7421565918460908 0.8062777920041976
2.114810925440965 1.6664194903052014 0.7898542082908921
2.129572623412145 1.5994660646494006 0.7770802695622854
2.0799406950162806 1.4872367066555445 0.7411916225457954
1.6760125960226402 1.7416629279536782 0.6139581640052916
1.8533177298279286 1.842561096888416 0.6633541186710754
1.9381859163255375 1.840852344543045 0.6770608437361031
2.068861989303095 1.877774987753358 0.7060260102243194
2.1372421652310223 1.8520579439325737 0.7122328756569636
2.125337390552125 1.7565591009553003 0.6912848281402634
2.14025772287336 1.6868709364798216 0.6799056776124773
2.1124774304650225 1.5863745661699122 0.6553369996995593
2.1282612251137167 1.522474118214738 0.6452509050307494
2.438098727173502 0.45234750251091155 0.4838735136482659
2.4464089686343593 0.3959729252681882 0.4740460486490224
2.5055927300104255 0.3466812757777015 0.4740460486490224
1.663681352406569 1.7285079764993276 0.5043658897264165
1.7633100447968604 1.7509449716539254 0.5217061099401484
1.870377563029585 1.7749952714547788 0.5403308532926492
2.010430535843846 1.8236291752343048 0.5675186248771347
2.1372421652310223 1.8520579439325737 0.5895686101464165
2.143197790828138 1.7716162199068723 0.5771521145780826
2.166499673477695 1.7079614427302612 0.5698735074049095
2.1637632033935033 1.625649210240285 0.55595847806798
2.1782478570998247 1.5589265230248812 0.5469672244164272
2.3979820568673125 0.559939049941869 0.4127408343324548
2.3623645302245175 0.4946009610458262 0.397113209557124
2.3704408959451375 0.43972247849915147 0.38919234081456655
2.3862611272139254 0.3862029356618794 0.38255594417079936
2.492194246961815 0.3448262793653892 0.39026272572356197
1.739039351543987 1.8088997724296036 0.42004468098372527
1.7837024384421756 1.771701778024352 0.42004468098372527
1.8494579024641942 1.7546776033818854 0.4249843864905229
2.002294570947968 1.816089940732444 0.44968287341362156
2.1372421652310223 1.8520579439325737 0.46910101069138516
2.1517396569979375 1.7788173964202465 0.4610952642724142
2.114810925440965 1.6664194903052014 0.44235849649350417
2.1124774304650225 1.5863745661699122 0.4316274345226759
2.144090384831417 1.5340174231926442 0.428220749471965
2.184881110871389 1.4883318379537263 0.4266877290158783
2.1745098282206734 1.4084740788984114 0.4151049754769277
2.120231514662578 1.3040187371720366 0.39551651612989536
2.1286390351698676 1.2423577472205072 0.388362501889936
2.100384655590515 0.9782791271284247 0.35071856304106874
2.1938111536238534 0.9616343521610572 0.3587243094600397
2.2415149255152484 0.9219038999428634 0.3587243094600397
2.2542248584315034 0.8670703990431695 0.35293291238511976
2.2600704604099797 0.8101457415682781 0.34611954228369796
2.26087657289469 0.7522125581738146 0.33862482298886715
2.275708269114323 0.6995164794718653 0.333344473343532
2.3195609602820215 0.6551849518528501 0.3323224597061409
2.3302248972536534 0.6007543200116078 0.3263607608673968
2.3553515604549466 0.5498950956128209 0.32244306899799036
2.3897929120588604 0.5003878485562452 0.31971771283524375
2.4176738220147116 0.44853619325984684 0.3159703633405507
2.418950137578619 0.39151270711770203 0.3086459661149887
2.4506588856221168 0.3390757816419001 0.3052392810642778
1.6945095431138573 1.7613954422575495 0.3054457821822584
1.744324086719355 1.7316197338997812 0.3065907348015658
1.835030585933686 1.7406654530636156 0.31485978650099566
1.9778864999167274 1.7934720738171364 0.3316523035948076
2.093276800060169 1.8131932998683302 0.34297453194838295
2.143197790828138 1.7716162199068723 0.34297453194838295
2.1577522302142293 1.7009311723968885 0.3372497991825201
2.137713219208934 1.6057001327775247 0.3263092217020472
2.1282612251137167 1.522474118214738 0.31740410543456266
2.1431140637713515 1.4593490240954037 0.31244267441490475
2.1509681156928155 1.3929431361723341 0.3065907348015658
2.097938542187757 1.290050700980949 0.2922153297938448
2.1286390351698676 1.2423577472205072 0.2900526617333803
2.1379746621072906 1.1825260854177635 0.2849639935355721
2.199858678761184 1.1518080108859414 0.28699945474856053
2.1795297580139295 1.0776409280909285 0.278094338481076
2.18305172058418 1.0174459832666716 0.27249684289336346
2.2080647840191374 0.9679826807967782 0.26969807993417005
2.2352702482998543 0.9192963497345473 0.26715376100060306
2.2052815543497033 0.8479686245965959 0.2577397566818658
2.2394020860852826 0.8026328135835076 0.25608594634197984
2.296469722479298 0.7642133820155517 0.25697645493566085
2.2904955978239085 0.7041190038816519 0.2506156727670804
2.3195609602820215 0.6551849518528501 0.24819856068098953
2.3302248972536534 0.6007543200116078 0.24374600254724726
2.3224650613492694 0.5421468749056398 0.23738519004799266
2.3623645302245175 0.4946009610458262 0.23598582373373306
2.3972487646776943 0.44472485561216113 0.23395036252074464
2.418950137578619 0.39151270711770203 0.23051551982815952
2.4774558517193372 0.3427857744665248 0.23051551982815952
1.8143975140156252 1.889291742604571 0.21782207930713135
1.9060566326617159 1.896242445598608 0.22323379834370655
2.027635416404432 1.9277278101467235 0.23185874004843418
2.1132404445501183 1.9188985158436926 0.23591754444605958
2.1372421652310223 1.8520579439325737 0.2328734461879052
2.143197790828138 1.7716162199068723 0.22796906006080686
2.1752469271481294 1.7149915606887949 0.2260242200669932
2.137713219208934 1.6057001327775247 0.21689192529253
2.144090384831417 1.5340174231926442 0.21257946452029552
2.184881110871389 1.4883318379537263 0.21181843491569227
2.1274264031649577 1.3774121934462569 0.2015023297520187
2.105072242354843 1.2945204405916164 0.1949067801659744
2.151434853024712 1.2559069847809619 0.1949067801659744
2.1230582377685345 1.1741271508154432 0.18805757420532104
2.2074836669792868 1.155868887754911 0.19143990112321288
2.2097338315565302 1.0928286206065272 0.18746564885045716
2.1900235959524754 1.020749190409501 0.1817157011541445
2.2009379688214956 0.9648085164789177 0.17867160289599013
2.1582529762090648 0.8871367365220028 0.17131502370534257
2.2116655076949363 0.850460177612189 0.17182237677507808
2.2328754630882317 0.800260394360289 0.16970843253152504
2.267550346452134 0.7544627322032903 0.168609164187055
2.275708269114323 0.6995164794718653 0.1654805138040309
2.3265417753488706 0.6571794040067851 0.1654805138040309
2.3302248972536534 0.6007543200116078 0.16201362468114003
2.3553515604549466 0.5498950956128209 0.16006878468732635
2.3760786468297668 0.4974943891225777 0.1577857059536459
2.424056633410251 0.44972723272517084 0.15727836296403974
2.4673299976171617 0.3993711891275097 0.15634821902956775
2.5055927300104255 0.3466812757777015 0.15499528423035927
1.7719229400772105 1.843979933382357 0.10610041297596658
1.8905865120252094 1.8804958734127148 0.11048960414080508
2.0110439851956294 1.9116138205769126 0.11475219301994895
2.1317313059214067 1.9360331694224173 0.11880375796525179
2.1834814327514445 1.8929326794656225 0.11880375796525179
2.178918591380164 1.8017304578100168 0.1157228809788327
2.166499673477695 1.7079614427302612 0.11234657853477616
2.1466680104463807 1.612557711760797 0.10871705139498039
2.1524214901624346 1.5400928239943348 0.10652245078147364
2.159309486708648 1.4705872839423169 0.10445446251583651
2.1509681156928155 1.3929431361723341 0.10171121174895309
2.1273654274332334 1.30848860999304 0.09833490930489655
2.1359336447076327 1.2466934722279315 0.09656234649689686
2.175266389778896 1.2035237973900337 0.0962247202773612
2.176984168583897 1.1396256223220593 0.09419893277362229
2.164914733849491 1.0702919692558077 0.0916244951165067
2.2268750389541934 1.0382090478103372 0.0922575568558548
2.2304635194538243 0.9779587030185283 0.09040059252405869
2.248800299553394 0.9249460073145614 0.0891766798694357
2.269120834128294 0.872884055747796 0.08803717880078411
2.2470166957094997 0.8054007145727268 0.08525171720982748
2.2008131412578544 0.7319611707350474 0.0816221951011192
2.275708269114323 0.6995164794718653 0.08259288306000295
2.3055994688436874 0.6511960871709068 0.08183321400387274
2.2897553323858393 0.5902119267677916 0.07942759448761245
2.3419533463601345 0.546738410568448 0.07942759448761245
2.3897929120588604 0.5003878485562452 0.07921657558485892
2.389589330131756 0.44329559689512393 0.07735960622197534
2.399336731359803 0.38832684424420844 0.07584026810971489
2.4372604025735067 0.33722078522958776 0.0752072114014543
1.6945095431138573 1.7613954422575495 0.0
1.8828515355331314 1.87262267264392 0.0
2.027635416404432 1.9277278101467235 0.0
2.122115994524639 1.9271230907339794 0.0
2.1554346491139245 1.868139793998093 0.0
2.161058191104151 1.7866733388584446 0.0
2.098111571272036 1.652998314463954 0.0
2.1466680104463807 1.612557711760797 0.0
2.144090384831417 1.5340174231926442 0.0
2.159309486708648 1.4705872839423169 0.0
2.1745098282206734 1.4084740788984114 0.0
2.166601203559345 1.3330724442723827 0.0
2.1140495986952335 1.2336861679893205 0.0
2.0950893864461038 1.158378835547368 0.0
2.169359407604305 1.135564866474603 0.0
2.164914733849491 1.0702919692558077 0.0
2.1900235959524754 1.020749190409501 0.0
2.1734487551337516 0.9525652803637802 0.0
2.220699500223563 0.913212134991151 0.0
2.2542248584315034 0.8670703990431695 0.0
2.2818265620086535 0.8180540570444921 0.0
2.26087657289469 0.7522125581738146 0.0
2.282533096181063 0.7016406922884021 0.0
2.3055994688436874 0.6511960871709068 0.0
2.3099900438735324 0.5954831049080854 0.0
2.3492614895388946 0.5484602449943855 0.0
2.3548839948952223 0.4930227047443865 0.0
2.4176738220147116 0.44853619325984684 0.0
2.418950137578619 0.39151270711770203 0.0
2.4854950054375102 0.3438987811592329 0.0
1.6403887492785363 1.7036594638160347 -0.0979972730231859
1.8174553831984575 1.8060578889803998 -0.10610041297596658
2.0110439851956294 1.9116138205769126 -0.11475219301994895
2.140607032239532 1.9442579077224291 -0.11931020735673027
2.1736271329968266 1.8842216440636126 -0.11825510781187511
2.161058191104151 1.7866733388584446 -0.11475219301994895
2.1577522302142293 1.7009311723968885 -0.11188232990519589
2.137713219208934 1.6057001327775247 -0.10825280276540013
2.136592330444735 1.5285495190164284 -0.10572057593235772
2.1431140637713515 1.4593490240954037 -0.10365258766672059
2.1352737099679717 1.3825892200694196 -0.10095154772391036
2.1746267756999935 1.3381010012421355 -0.1005717106803015
2.1441402434869463 1.2515712597735373 -0.09694218354050572
2.1827246019482742 1.207723264691194 -0.09656234649689686
2.24656096466709 1.1766804732607727 -0.09727980976004139
2.247732662086141 1.1119357967701031 -0.09521182149440426
2.2199031635858977 1.0349058406675078 -0.09196213139821734
2.2009379688214956 0.9648085164789177 -0.0891766798694357
2.1582529762090648 0.8871367365220028 -0.08550494190556672
2.2052815543497033 0.8479686245965959 -0.08550494190556672
2.2600704604099797 0.8101457415682781 -0.08575816660130596
2.3031434960367414 0.7664635560450274 -0.08550494190556672
2.3177951772886227 0.7126159395575196 -0.0841544219341616
2.3195609602820215 0.6551849518528501 -0.08233965836426373
2.3099900438735324 0.5954831049080854 -0.08014505775075698
2.3419533463601345 0.546738410568448 -0.07942759448761245
2.3760786468297668 0.4974943891225777 -0.07875233198636615
2.403631576073234 0.44591589507748536 -0.07782384982046811
2.4464089686343593 0.3959729252681882 -0.07735960622197534
2.4774558517193372 0.3427857744665248 -0.07647332481797549
1.7657572366020649 1.8374023705328362 -0.21181843491569227
1.9693432154708503 1.9606599616618563 -0.2308440339089632
2.0889515976526813 1.9872795325183736 -0.23904619482908368
2.140607032239532 1.9442579077224291 -0.23904619482908368
2.146338316809163 1.860098789085685 -0.23388813216711757
2.143197790828138 1.7716162199068723 -0.22796906006080686
2.14025772287336 1.6868709364798216 -0.2223036644893639
2.189813187578073 1.6455982877030455 -0.2223036644893639
2.204074422666434 1.5777603669044085 -0.2186676610366043
2.2010765338086853 1.4995700978006394 -0.2134250462497685
2.1588154224958296 1.398120162795497 -0.2045464280101731
2.1906777073777217 1.3481579819713052 -0.20302436880096655
2.1742308882786596 1.2694563515577544 -0.19702074456978613
2.1454330965515735 1.1867256778744133 -0.1900869663240044
2.184608929563489 1.1436863781695157 -0.18941048884427084
2.201939306867449 1.088909253766288 -0.18678919153098228
2.18305172058418 1.0174459832666716 -0.1811237959595393
2.223336461517245 0.974784430588804 -0.18053187060467543
2.2352702482998543 0.9192963497345473 -0.17757234463164942
2.191449739992945 0.8425702927310544 -0.17021576544100187
2.225260594110826 0.7974923990965128 -0.16911650717666116
2.26087657289469 0.7522125581738146 -0.16810181111731948
2.275708269114323 0.6995164794718653 -0.1654805138040309
2.333522451720356 0.6591738165347933 -0.1659878567936371
2.3445082146630587 0.6044751494657428 -0.1630283207404817
2.328555132265322 0.5435817255240751 -0.1582084968183824
2.3760786468297668 0.4974943891225777 -0.1577857059536459
2.376823707340677 0.4409135179644756 -0.1541497025008863
2.4333333644884823 0.3938490166858591 -0.1541497025008863
2.5136318837285985 0.34779428247040967 -0.15550263730009478
1.8143975140156252 1.889291742604571 -0.32770861834698095
1.9454349843845364 1.9363244897231786 -0.34297453194838295
2.027635416404432 1.9277278101467235 -0.3488264715617219
2.140607032239532 1.9442579077224291 -0.3596398421947188
2.1736271329968266 1.8842216440636126 -0.35645942836242295
2.161058191104151 1.7866733388584446 -0.34590050175505244
2.1577522302142293 1.7009311723968885 -0.3372497991825201
2.129572623412145 1.5994660646494006 -0.3250370622352637
2.136592330444735 1.5285495190164284 -0.31867626490134615
2.1192472958428747 1.4427874967598935 -0.3088806400401806
2.1274264031649577 1.3774121934462569 -0.30315590727431774
2.2397225869880386 1.3788878747282356 -0.31244267441490475
2.1979386953750524 1.2835476516563904 -0.29972107974706974
2.2060319039586647 1.2208468190294264 -0.29425079100683327
2.199858678761184 1.1518080108859414 -0.28699945474856053
2.2097338315565302 1.0928286206065272 -0.28203802372890263
2.2199031635858977 1.0349058406675078 -0.27720382988739495
2.2599888273472155 0.9911087814462751 -0.27618608411556367
2.2560856735915396 0.9279881146862596 -0.26969807993417005
2.2978483705081025 0.8840959453132349 -0.26880757134048905
2.2959680539831107 0.823194471531487 -0.26270118770152373
2.2542029319322863 0.7499624288509674 -0.2521422610941532
2.282533096181063 0.7016406922884021 -0.2497251490080623
2.3195609602820215 0.6551849518528501 -0.24819856068098953
2.283803938307551 0.588661578081633 -0.23878457152758936
2.328555132265322 0.5435817255240751 -0.23802126978138444
2.3760786468297668 0.4974943891225777 -0.23738519004799266
2.389589330131756 0.44329559689512393 -0.23318706077453968
2.399336731359803 0.38832684424420844 -0.22860728062798424
2.470756610195032 0.34185827626036874 -0.22987944009476777
1.8356347193177225 1.9119475600933324 -0.44406183901885965
1.9292617297903003 1.919862218553296 -0.4553039078083835
2.062261079269959 1.9613570711333754 -0.4752330519048426
2.140607032239532 1.9442579077224291 -0.48153541518756887
2.1645309814186864 1.876180798910501 -0.4752330519048426
2.116795524382325 1.7493579244419262 -0.45343024321375924
2.114810925440965 1.6664194903052014 -0.44235849649350417
2.137713219208934 1.6057001327775247 -0.43690778416801107
2.144090384831417 1.5340174231926442 -0.428220749471965
2.135442515554968 1.454025615585627 -0.4168083180022832
2.1352737099679717 1.3825892200694196 -0.40743995441827274
2.120231514662578 1.3040187371720366 -0.39551651612989536
2.1359336447076327 1.2466934722279315 -0.38972515966586463
2.1454330965515735 1.1867256778744133 -0.38291178956444283
2.1474379357398394 1.1238900421362745 -0.3749060837563611
2.164914733849491 1.0702919692558077 -0.36979601556940556
2.2199031635858977 1.0349058406675078 -0.3711587139562234
2.2834056098847264 1.0015382248243299 -0.373713707438812
2.248800299553394 0.9249460073145614 -0.3599166451666996
2.2116655076949363 0.850460177612189 -0.34611954228369796
2.1926265713894093 0.7856299730194702 -0.335558822687583
2.23306940406374 0.7428369075620468 -0.33436646667547854
2.2620583437830892 0.6952679694290712 -0.3313004460687498
2.299782169186434 0.6495340569179365 -0.3294267814741255
2.317131773524449 0.5973435381167672 -0.32448707596732795
2.335863275444082 0.5453035599500127 -0.31971771283524375
2.3548839948952223 0.4930227047443865 -0.31494834970315955
2.3704408959451375 0.43972247849915147 -0.3096679797523798
2.4058745334327414 0.3893887985353729 -0.30694262358963326
2.4372604025735067 0.33722078522958776 -0.30353593853892236
1.7719229400772105 1.843979933382357 -0.5381900834746584
1.8983216561696379 1.888369244829813 -0.5628089619015421
1.969926150282399 1.8716792088736445 -0.5698735074049095
2.122115994524639 1.9271230907339794 -0.599844284856781
2.1834814327514445 1.8929326794656225 -0.6026272907241669
2.1882371254863773 1.809586400248215 -0.5895686101464165
2.21182662735981 1.7443904574242466 -0.5820758902634593
2.2166771731161874 1.6661707273890458 -0.5698735074049095
2.195743317335416 1.571684966102718 -0.5514628767621929
2.1431140637713515 1.4593490240954037 -0.5257735879063246
2.119579096361944 1.372235166823094 -0.5082192549828085
2.1505502718816167 1.323015463543213 -0.5043658897264165
2.1824374870579732 1.2743341391033602 -0.5007265861398299
2.1911152573450035 1.2124477592716163 -0.4917353324882771
2.176984168583897 1.1396256223220593 -0.47782030315134755
2.1941447821783675 1.084989886926049 -0.4711839320275696
2.211935136406635 1.0311306664278062 -0.46476157153361863
2.237590334651466 0.9811328673363887 -0.46005190855802597
2.2560856735915396 0.9279881146862596 -0.453843660773859
2.2329451830632197 0.8587652883276792 -0.4392863953875344
2.2600704604099797 0.8101457415682781 -0.4350048557515528
2.282010233358276 0.7593381241693639 -0.429652956726565
2.2904955978239085 0.7041190038816519 -0.4217320879840076
2.299782169186434 0.6495340569179365 -0.41402530643124497
2.3028484561150435 0.593622708662632 -0.4052481399694869
2.3419533463601345 0.546738410568448 -0.4028932829617013
2.409740907187752 0.5045965111221407 -0.4052481399694869
2.403631576073234 0.44591589507748536 -0.3947583525493384
2.4058745334327414 0.3893887985353729 -0.38576709889778554
2.457358127146422 0.3400032798480564 -0.38469671398879013
1.8287839921234117 1.9046392150087619 -0.6716298981417764
1.9060566326617159 1.896242445598608 -0.6827504498296146
2.027635416404432 1.9277278101467235 -0.7091294429406415
2.122115994524639 1.9271230907339794 -0.724646483203778
2.146338316809163 1.860098789085685 -0.7153362467140487
2.1882371254863773 1.809586400248215 -0.7122328756569636
2.183994180818564 1.7220216786473284 -0.6941296003574007
2.1637632033935033 1.625649210240285 -0.6716298981417764
2.1041009600649985 1.5048554124351414 -0.6377509837391291
2.176357236150475 1.48241698661659 -0.6452509050307494
2.183228988708072 1.4142262849874554 -0.6328372358246981
2.105072242354843 1.2945204405916164 -0.5961135492049134
2.1067547717583643 1.229350313765558 -0.5834412811589141
2.1305164499379123 1.1783266181166032 -0.5772344773855069
2.184608929563489 1.1436863781695157 -0.5793033914235637
2.23214338041005 1.104096946281887 -0.5793033914235637
2.2268750389541934 1.0382090478103372 -0.5653380675185882
2.2009379688214956 0.9648085164789177 -0.5464589956991818
2.1780277046779988 0.8953939443103328 -0.5288729797387515
2.2191133687064615 0.8533669564621377 -0.5273212633805904
2.2535435780597397 0.8077732280705023 -0.5239592318243205
2.309817269594186 0.768713730074503 -0.5255109481824815
2.2620583437830892 0.6952679694290712 -0.5030112151372387
2.3195609602820215 0.6551849518528501 -0.5045629314953998
2.379026385452585 0.6134671940234003 -0.5061146478535609
2.3553515604549466 0.5498950956128209 -0.4895631197417774
2.3486502649954244 0.49170750161215865 -0.47689085169577816
2.3832065187362166 0.4421045574297996 -0.47275296196042765
2.3862611272139254 0.3862029356618794 -0.46214963878210363
2.4238619195248963 0.3353657888172754 -0.4582703787163195
1.7931601453793078 1.8666357508711184 -0.7740388624852709
1.8905865120252094 1.8804958734127148 -0.7962411413987632
1.961991005799594 1.8639724092719907 -0.8062777920041976
2.0348386068750868 1.8462470421496124 -0.8163144426096319
2.042489366387366 1.7682980618790773 -0.7995867399424844
2.0500131903313794 1.6930574198547366 -0.7834672751830211
2.098111571272036 1.652998314463954 -0.7834672751830211
2.1124774304650225 1.5863745661699122 -0.7706933364544143
2.136592330444735 1.5285495190164284 -0.7618732341772128
2.1678333614295617 1.4765021352794534 -0.7557904200231838
2.2250810837762955 1.4418369565009124 -0.7588318271001983
2.166601203559345 1.3330724442723827 -0.7220307507093175
2.1441402434869463 1.2515712597735373 -0.6986119234675923
2.1230582377685345 1.1741271508154432 -0.6764096445540998
2.169359407604305 1.135564866474603 -0.6764096445540998
2.2097338315565302 1.0928286206065272 -0.6742805943386116
2.18305172058418 1.0174459832666716 -0.651470077517435
2.1734487551337516 0.9525652803637802 -0.6344381833835808
2.1780277046779988 0.8953939443103328 -0.6219683636088162
2.2329451830632197 0.8587652883276792 -0.6240973413114399
2.2328754630882317 0.800260394360289 -0.6104110457213069
2.23306940406374 0.7428369075620468 -0.5970287965721514
2.282533096181063 0.7016406922884021 -0.5970287965721514
2.299782169186434 0.6495340569179365 -0.5882087305513822
2.283803938307551 0.588661578081633 -0.5708726812072537
2.309066992453201 0.5389902240708041 -0.5641815928891082
2.3162348100669363 0.4848684327818076 -0.5529283576990087
2.3627814613991993 0.4382932197821141 -0.551103498950227
2.41241233550568 0.39045075282653746 -0.5495827954117198
2.4372604025735067 0.33722078522958776 -0.5419792777191835
1.6342232091376108 1.697082075211205 -0.811512133807075
1.719009420065231 1.7058526933448213 -0.8329138331509455
1.7816493771810622 1.6888203632556114 -0.8423867192096667
1.8321776588079268 1.6584502127137162 -0.8455443757788229
1.9113514190512841 1.6523743199352454 -0.8616833978228471
1.935085405300571 1.5961681394742924 -0.8518596889171355
1.987577127872023 1.5641624118069397 -0.8550172618375442
2.004207292871907 1.5034612965707626 -0.8423867192096667
2.057446730485454 1.4708331389758782 -0.8455443757788229
2.0962326511937253 1.4268172712305633 -0.8423867192096667
2.1352737099679717 1.3825892200694196 -0.8392291462892579
2.075645357109367 1.2760825315795254 -0.7971273096467504
2.084870725745965 1.216343009526947 -0.7830933919821637
2.0950893864461038 1.158378835547368 -0.7697611200115578
2.1188445139700924 1.1086619051545308 -0.7616916089895457
2.2243488557209683 1.100177579441648 -0.7830933919821637
2.2268750389541934 1.0382090478103372 -0.7669543699381395
2.2009379688214956 0.9648085164789177 -0.741342461835394
2.220699500223563 0.913212134991151 -0.7318695757766728
2.1776179256361865 0.8371719608655129 -0.7016965524193144
2.267685070034197 0.8129136425574973 -0.7153796472369106
2.2475291583748422 0.7477122548214917 -0.6932762185503119
2.255233516716349 0.6931437566125345 -0.6802948530754439
2.2788398626812505 0.6435507400820583 -0.6722253420534319
2.270710814578347 0.5852507961867924 -0.6546829031483248
2.309066992453201 0.5389902240708041 -0.6508236008851876
2.3224685399667346 0.4861836359140353 -0.6395964332940193
2.35639865000366 0.43710218031679 -0.6339828494984351
2.3862611272139254 0.3862029356618794 -0.6269658906661417
2.3850062228504165 0.32998628595358853 -0.6115285561404722
1.5266666451861342 1.5823409005632252 -0.8601568359080949
1.5713405591915668 1.5555449852156051 -0.8633484711843177
1.6373762118759805 1.5486988600729141 -0.8781100459151101
1.7419417545002012 1.5748326391659204 -0.9128194838013468
1.7908259196462981 1.5458318036423218 -0.9164101448266234
1.7890959016294996 1.4730924363273414 -0.8936693867859061
1.8181973682947876 1.4280328636676498 -0.8872861162334605
1.8601187666774563 1.3931183055661567 -0.8872861162334605
1.9024881316026743 1.3578306550946384 -0.8872861162334605
1.9726363661278774 1.3410518563314948 -0.9000527524577197
2.023668331000559 1.3089608998436117 -0.9032444828533105
2.120231514662578 1.3040187371720366 -0.9263840764043456
2.151434853024712 1.2559069847809619 -0.9196017801028462
2.1603497431652348 1.1951247376322236 -0.9032444828533105
2.192233917781592 1.147747255038485 -0.8968611171814969
2.1795297580139295 1.0776409280909285 -0.8721256108729823
2.1760796077541893 1.0141426636167867 -0.8517786268491161
2.1734487551337516 0.9525652803637802 -0.8322296943233577
2.19259845275429 0.9014781590537292 -0.8214577112475278
2.225497322051695 0.8558585094777305 -0.8158723019544538
2.2056802064132945 0.790374952877743 -0.7907378650162535
2.282010233358276 0.7593381241693639 -0.8007118917133437
2.275708269114323 0.6995164794718653 -0.7807638858788473
2.2858205390527355 0.6455451526100664 -0.7668002675267946
2.270710814578347 0.5852507961867924 -0.7444585352351312
2.276180493347524 0.5312420033636228 -0.7292980774343369
2.308754274737641 0.4832901764803679 -0.7229147117625234
2.35639865000366 0.43710218031679 -0.7209199159350422
2.3862611272139254 0.3862029356618794 -0.7129407326251173
2.4238619195248963 0.3353657888172754 -0.7069563451426736
1.394447430668295 1.4412896487618532 -0.880834875497034
1.4475800132303918 1.4295728343492184 -0.8920528328191901
1.520514707196813 1.4352002086417184 -0.9149374871529649
1.6235995010808146 1.465170169941237 -0.954873447314705
1.690008839023927 1.4567111983941212 -0.9710273272551859
1.7238667183100373 1.4181013075073388 -0.9674376237052479
1.7641229711492068 1.3845735786402917 -0.9674376237052479
1.8169733954586509 1.360077580992 -0.9741683446071017
1.8400047423054295 1.312265076657469 -0.9642966063533321
1.9001833293875108 1.2907755494552449 -0.9741683446071017
1.975712844379275 1.277323697782165 -0.991219703926507
2.0328427308997123 1.2492638274948489 -0.9979505318112407
2.1140495986952335 1.2336861679893205 -1.0158992635266906
2.1379746621072906 1.1825260854177635 -1.0051299389111168
2.176984168583897 1.1396256223220593 -1.0015402353611789
2.1795297580139295 1.0776409280909285 -0.9808991724918353
2.161139942668326 1.007064394741311 -0.9512837437647669
2.1877023855290356 0.9589136089995013 -0.942309377907042
2.2061285040078293 0.9071278166337434 -0.9297452015164991
2.2116655076949363 0.850460177612189 -0.9117964698010491
2.1338850192670327 0.7642774929513253 -0.8597451264296682
2.2008131412578544 0.7319611707350474 -0.8678220663999087
2.2495460930279605 0.6913735581629903 -0.8678220663999087
2.2462629568615604 0.6342433627402395 -0.8471810035305652
2.2385733149340776 0.5768789206741812 -0.825193775084275
2.276180493347524 0.5312420033636228 -0.8202578524659504
2.3162348100669363 0.4848684327818076 -0.8157706695370879
2.3436330272125807 0.43472010138614176 -0.8063475639899007
2.3731855230680483 0.3840790270795503 -0.7973731981321757
2.3850062228504165 0.32998628595358853 -0.7821167440791793
1.3430669767109644 1.386477060627574 -0.944753223382245
1.4011698189732231 1.3823332884398423 -0.9617667465227236
1.4527062679072709 1.3693430520344483 -0.9732759226011414
1.51117445732138 1.3609909140531364 -0.9887882981397303
1.5709994552452748 1.3515089028396978 -1.004300733330519
1.6081624504841592 1.3205574172845316 -1.004300733330519
1.640069975861056 1.2848728928201478 -1.0007978368680448
1.68835186541712 1.2615792153884942 -1.0073030285342983
1.7325332253173122 1.2338922180119862 -1.0108058056923732
1.76039182460957 1.1937720157304428 -1.004300733330519
1.8501567670557884 1.1944918203852046 -1.033323795199312
1.9855811700293826 1.2196513030354175 -1.086366053829133
2.036543339710735 1.187618476007831 -1.090369312941504
2.116532024276697 1.170452460482566 -1.1093844059859683
2.1550626967194315 1.127950797983731 -1.1053812661779967
2.1502999419829814 1.062943127228425 -1.0788601368630861
2.1471961919317346 1.0004579804556522 -1.053840214802265
2.131705668311787 0.933973607501058 -1.0233158263749835
2.1384784958795735 0.8788796323476841 -1.004300733330519
2.19889760100447 0.8454770715810033 -1.0108058056923732
2.2535435780597397 0.8077732280705023 -1.0138082202005516
2.2475291583748422 0.7477122548214917 -0.9887882981397303
2.2358961676967266 0.6871250481201963 -0.9617667465227236
2.266041747957148 0.639894257675153 -0.9532599849524843
2.2504761030906533 0.5799796180464987 -0.9252376483834847
2.3224650613492694 0.5421468749056398 -0.933744409953724
2.3224685399667346 0.4861836359140353 -0.9122272650509777
2.324484593025962 0.4311469829901693 -0.8917109051002244
2.3535721168492327 0.38089316420605657 -0.8817029362758959
2.3970649534276762 0.3316557959926505 -0.8766989518637317
